NCOLS 171
NROWS 32
XLLCORNER 663800
YLLCORNER 5180300
CELLSIZE 500.0
NODATA_VALUE -9999
2382.6201171875 2410.260009765625 2379.280029296875 2178.56005859375 2295.699951171875 2490.14990234375 2520.659912109375 2650.8798828125 2606.8798828125 2312.969970703125 2189.280029296875 2232.610107421875 2230.8701171875 2398.030029296875 2127.030029296875 1951.0400390625 2192.8701171875 2401.77001953125 2155.3701171875 1790.9300537109375 1936.199951171875 2068.22998046875 1883.18994140625 1779.4100341796875 1565.3499755859375 1469.5899658203125 1305.3299560546875 1185.510009765625 1141.5400390625 1100.4599609375 1039.31005859375 1042.280029296875 1077.6400146484375 1125.22998046875 1164.8900146484375 1200.1400146484375 1239.75 1215.75 1186.8199462890625 1109.050048828125 1067.5699462890625 989.96002197265625 944.1400146484375 942.34002685546875 940.32000732421875 940.6099853515625 1053.2900390625 1324.9300537109375 1514.0699462890625 1647.699951171875 1565.969970703125 1634.510009765625 1708.6600341796875 1816.530029296875 1942.2099609375 2057.47998046875 2308.179931640625 2240.070068359375 1941.31005859375 1630.06005859375 1792.6400146484375 2067.429931640625 2240.419921875 2275.830078125 2495.10009765625 2575.169921875 2456.330078125 2344.570068359375 2301.27001953125 2320.199951171875 2098.75 1787.199951171875 1858.4300537109375 2224.56005859375 2362.7099609375 2546.8798828125 2554.780029296875 2598.5 2459.760009765625 2236.7900390625 2060.2099609375 1737.6500244140625 1532.77001953125 1331.0400390625 1172.56005859375 1089.56005859375 1324.6700439453125 1507.9000244140625 1615.9100341796875 1617.6099853515625 1796.969970703125 2061.260009765625 2469.610107421875 2514.510009765625 2649.159912109375 2551.93994140625 2459.4599609375 2670.43994140625 2427.919921875 2279.68994140625 2257.27001953125 2101.77001953125 1942.77001953125 1842.9000244140625 1792.8499755859375 1580.1800537109375 1680.530029296875 1510.199951171875 1698.72998046875 1800.6800537109375 1725.22998046875 1807.280029296875 1687.93994140625 1752.6400146484375 1716.969970703125 1783.6300048828125 1918.719970703125 1916.0400390625 1825.77001953125 1430.1600341796875 1100.1800537109375 840.96002197265625 840.19000244140625 1088.81005859375 1496.22998046875 1722.22998046875 2005.760009765625 2234.669921875 2381.06005859375 2418.929931640625 2303.949951171875 2409.89990234375 2392.85009765625 2230.9599609375 2042.969970703125 2258.81005859375 2516.97998046875 2468.580078125 2388.860107421875 2546.510009765625 2558.889892578125 2521.969970703125 2176.199951171875 1993.72998046875 1874.5 1635.3599853515625 1502.02001953125 1416.06005859375 1406.8399658203125 1463.800048828125 1521 1588.449951171875 1942.3599853515625 1897.18994140625 1885.699951171875 2180.830078125 2312.389892578125 2365.199951171875 2461.659912109375 2509.43994140625 2312.25 2433.010009765625 2583.429931640625 2450.85009765625 2198.510009765625 2112.25 1897.5400390625 1720.3900146484375 1953.93994140625 2375.659912109375 2603.550048828125
2213 2303.72998046875 2342.360107421875 2115.550048828125 2170.35009765625 2394.889892578125 2513.070068359375 2706.75 2626.550048828125 2335.840087890625 2275.35009765625 2398 2430.3798828125 2470.300048828125 2129.47998046875 2049.719970703125 2291.25 2403.25 2129.889892578125 1808 2034.4599609375 2136.840087890625 1981.800048828125 1815.6800537109375 1758.6300048828125 1662.780029296875 1515.969970703125 1424.780029296875 1338.9300537109375 1289.6300048828125 1185.9599609375 1083.5899658203125 1000.27001953125 986.8900146484375 991.46002197265625 1000.3599853515625 1020.3800048828125 974.08001708984375 958.96002197265625 950.1500244140625 946.280029296875 942.77001953125 941.79998779296875 940.47998046875 938.29998779296875 938.969970703125 1072.25 1318.4599609375 1516.4000244140625 1517.3299560546875 1351.9300537109375 1549.06005859375 1639.1300048828125 1695.8900146484375 1795.8199462890625 1971.1800537109375 2216.080078125 2056.919921875 1718.2099609375 1558.31005859375 1874.8499755859375 2208.25 2450.429931640625 2517.60009765625 2563.219970703125 2465.949951171875 2500.389892578125 2594.800048828125 2419.449951171875 2323.75 2031.219970703125 1747.3800048828125 1780.5400390625 2106.889892578125 2188.580078125 2422.179931640625 2587.3701171875 2364.580078125 2422.419921875 2173.159912109375 2032.3299560546875 1818.1300048828125 1664.280029296875 1553.030029296875 1288.6700439453125 1211.5799560546875 1031.469970703125 1217.3800048828125 1410.280029296875 1822.760009765625 2061.889892578125 2129.969970703125 2227.72998046875 2458.52001953125 2660.89990234375 2402.010009765625 2406.760009765625 2598 2443.3701171875 2478.7900390625 2582.590087890625 2319.969970703125 2124.280029296875 2034.2900390625 1837.300048828125 1803.260009765625 1914.4200439453125 1741.6700439453125 1896.31005859375 1981.3599853515625 1840.3399658203125 1919.06005859375 1885.6500244140625 1899.5999755859375 1842.3599853515625 1999.27001953125 2126.64990234375 1833.8599853515625 1539 1276.1800537109375 965.280029296875 839.719970703125 839.8900146484375 1071.3299560546875 1497.31005859375 1718.1600341796875 1892.9300537109375 2053.610107421875 2211.419921875 2488.840087890625 2263.580078125 2329.8701171875 2476.550048828125 2147.659912109375 1940.4300537109375 2167.699951171875 2454.360107421875 2255.97998046875 2399.669921875 2556.090087890625 2482.06005859375 2232.0400390625 2193.02001953125 1813.300048828125 1641.43994140625 1387.469970703125 1328.75 1343.4200439453125 1432.010009765625 1535.3900146484375 1780.7900390625 1882.8900146484375 1925.0899658203125 2206.56005859375 2113.10009765625 2199.669921875 2549.72998046875 2622.530029296875 2583.43994140625 2529.469970703125 2411.929931640625 2530.659912109375 2619.090087890625 2534.8701171875 2304.18994140625 2101.409912109375 1830.6700439453125 1639.0699462890625 1868.5899658203125 2240.320068359375 2306.2099609375
1984.6800537109375 2166.969970703125 2063.669921875 1941.18994140625 1992.1099853515625 2149.7099609375 2378.25 2513.8798828125 2513.5 2393.60009765625 2405.179931640625 2486.27001953125 2476.010009765625 2454.409912109375 2215.469970703125 2211.320068359375 2453.85009765625 2408.27001953125 2066.909912109375 2091.330078125 2202.06005859375 2151.4599609375 1940.68994140625 1866.300048828125 1871.8499755859375 1708.8499755859375 1654.1700439453125 1617.6800537109375 1604.1700439453125 1531.3900146484375 1450.9599609375 1367.0799560546875 1160.5400390625 1020.28997802734375 972.44000244140625 967.21002197265625 960.469970703125 953.07000732421875 954.77001953125 953.510009765625 972.4000244140625 990.19000244140625 985.72998046875 939.04998779296875 936.84002685546875 938.83001708984375 936.41998291015625 1000.3499755859375 1222.6400146484375 1144.5999755859375 1089.1400146484375 1197.68994140625 1288.1700439453125 1468.9300537109375 1665.1400146484375 1883.9300537109375 2031.27001953125 1917.7900390625 1669.1800537109375 1568.6600341796875 1921.260009765625 2268.1201171875 2146.60009765625 2202.080078125 2251.47998046875 2250.280029296875 2387.5400390625 2620.8701171875 2464.199951171875 2282.280029296875 1928.1700439453125 1846.6099853515625 1764.68994140625 1927.1500244140625 2113.580078125 2238.3798828125 2532.699951171875 2282.89990234375 2431.419921875 2389.679931640625 2112.429931640625 1976.3900146484375 1863.4200439453125 1606.219970703125 1628.56005859375 1640.1800537109375 1014.32000732421875 1102.1500244140625 1470.6800537109375 1789.31005859375 2202.169921875 2449.9599609375 2369.7900390625 2404.830078125 2591.93994140625 2408.929931640625 2246.969970703125 2342.31005859375 2255.449951171875 2426.7900390625 2395.06005859375 2273.889892578125 2207.050048828125 2074.840087890625 2062.93994140625 2095.360107421875 2068.659912109375 1938.72998046875 1988.760009765625 2064.070068359375 2035.43994140625 2070.260009765625 2039.7900390625 2236.510009765625 1975.9000244140625 2171.010009765625 1973.6300048828125 1718.3599853515625 1464.68994140625 1204 894.280029296875 838.969970703125 840.6099853515625 1056.469970703125 1378.5400390625 1510.8399658203125 1620.0899658203125 1877.5899658203125 2227.780029296875 2347.10009765625 2151.1298828125 2356.8798828125 2270.10009765625 1993.4000244140625 1946.469970703125 2203.14990234375 2192.1201171875 2229.669921875 2400.110107421875 2383.929931640625 2383.6298828125 2063.77001953125 1876.010009765625 1705.3599853515625 1427.7900390625 1265.1500244140625 1282.27001953125 1429.8900146484375 1625.5 1852.9000244140625 1837.8299560546875 2056.679931640625 2132.47998046875 2325.419921875 2416.280029296875 2466.39990234375 2698.06005859375 2689.699951171875 2654.969970703125 2474.5400390625 2538.909912109375 2671.35009765625 2667.7900390625 2395.8798828125 2265.31005859375 2084.14990234375 1848.1300048828125 1600.1400146484375 1754.469970703125 2025.0400390625 2248.0400390625
1880.1700439453125 1963.75 1771.969970703125 1788.81005859375 1810.75 1958.31005859375 2169.760009765625 2385.389892578125 2594.080078125 2626.110107421875 2533.919921875 2445.199951171875 2280.580078125 2242.8701171875 2370.77001953125 2487.85009765625 2569.050048828125 2468.8701171875 2198.6298828125 2214.97998046875 2404.419921875 2245.909912109375 2026.72998046875 2003.06005859375 1918.6800537109375 1924.43994140625 1843.8199462890625 1793.550048828125 1691.3900146484375 1669.72998046875 1590.780029296875 1472.760009765625 1174.300048828125 1046.1099853515625 1015.3800048828125 1037.3199462890625 1040.8299560546875 1030.280029296875 1040.1099853515625 1057.1099853515625 1178.7099609375 1224.8399658203125 1245.8900146484375 1009.6500244140625 937.1099853515625 935.41998291015625 936.530029296875 934.03997802734375 935.94000244140625 936.40997314453125 951.71002197265625 1020.3800048828125 1193.1500244140625 1282.6700439453125 1426.0899658203125 1623.3499755859375 1702.6300048828125 1898.969970703125 1534.469970703125 1556.050048828125 1810.8599853515625 2053.429931640625 1864.8499755859375 2014.260009765625 1968.81005859375 2309.6201171875 2414.969970703125 2621.030029296875 2371.1201171875 2152.60009765625 2074.6201171875 1894.8399658203125 1529.52001953125 1788.719970703125 2202.409912109375 2404.2099609375 2532.179931640625 2147.35009765625 1958.719970703125 2274.530029296875 2422.409912109375 2122.820068359375 1922.5699462890625 1877.6700439453125 1911.3800048828125 1473.760009765625 1034.75 1071.719970703125 1402.0699462890625 1672.06005859375 2090.830078125 2490.610107421875 2643.840087890625 2464.070068359375 2487.820068359375 2488.449951171875 2246.60009765625 2079.330078125 2017.1400146484375 2154.81005859375 2198.280029296875 2257.590087890625 2395.35009765625 2312.89990234375 2392.889892578125 2259.429931640625 2176.469970703125 2090.139892578125 2186.9599609375 2207.6298828125 2297.639892578125 2305.5400390625 2315.31005859375 2217.419921875 2152.260009765625 2348.679931640625 2143.169921875 1861.949951171875 1536.010009765625 1220.27001953125 917.3499755859375 841.4000244140625 869.5 986.1300048828125 1113.5699462890625 1402.6800537109375 1734.6300048828125 2040.3299560546875 2371.280029296875 2309.409912109375 1957.6800537109375 2044.25 1957.06005859375 1809.800048828125 2089.169921875 2330.050048828125 2135.679931640625 2107.0400390625 2455.93994140625 2235.030029296875 2127.31005859375 1982.43994140625 1816.719970703125 1537.81005859375 1304.25 1248.8599853515625 1440.1400146484375 1623.719970703125 1930.7900390625 2086.800048828125 2050.85009765625 2337.56005859375 2457.6298828125 2419.669921875 2582.2099609375 2719.47998046875 2551.8798828125 2615.8798828125 2581.510009765625 2660.93994140625 2597.800048828125 2460.840087890625 2390.25 2460.610107421875 2234.889892578125 2013.3599853515625 1787.1800537109375 1572.010009765625 1705.4599609375 2100.56005859375 2275.199951171875
1721.9300537109375 1662.25 1829.3199462890625 1969 2005.1300048828125 1858.719970703125 2114.830078125 2334.8701171875 2536.68994140625 2725.7099609375 2610.320068359375 2304.5 2169.2900390625 1946.510009765625 2102.179931640625 2257.169921875 2073.080078125 2079.3798828125 2224.10009765625 2030.2099609375 2033.8599853515625 2070.949951171875 2077.159912109375 2019.1300048828125 2076.659912109375 2046.260009765625 1875.52001953125 1725.2900390625 1587.4200439453125 1468.5999755859375 1284.699951171875 1153.9100341796875 1213.4000244140625 1222.8599853515625 1215.81005859375 1264.6099853515625 1243.3599853515625 1310.9000244140625 1176.06005859375 1169.280029296875 1453.4200439453125 1431.18994140625 1398.699951171875 1318.6300048828125 1074.31005859375 954.72998046875 933.82000732421875 933.71002197265625 933.20001220703125 933.04998779296875 933.04998779296875 957.3900146484375 964.54998779296875 1040.4599609375 1250.43994140625 1323.4000244140625 1533.9200439453125 1709.9000244140625 1305.800048828125 1530.47998046875 1781.5899658203125 1729.5 1789.949951171875 1725.3800048828125 1944.93994140625 2221.919921875 2424.639892578125 2523.6298828125 2388.010009765625 2222.050048828125 2113.52001953125 1771.3800048828125 1482.9599609375 1868.0899658203125 2104.1298828125 2270.570068359375 2406.909912109375 2067.010009765625 1858.719970703125 2113.3798828125 2433.1201171875 2218.14990234375 2095.47998046875 2143.8701171875 1776.719970703125 1419.4599609375 1058.9300537109375 1018.96002197265625 1380.949951171875 1740.52001953125 2027.22998046875 2307.5400390625 2514.639892578125 2279.340087890625 2178.409912109375 2395.8798828125 2292.669921875 2033.1099853515625 1794.1700439453125 1952.9300537109375 2039.18994140625 2299.1298828125 2327.530029296875 2204.679931640625 2247.330078125 2210.889892578125 2312.840087890625 2313.39990234375 2338.179931640625 2382.929931640625 2243.030029296875 2317.889892578125 2336.3701171875 2348.97998046875 2357.1201171875 2125.14990234375 1875.199951171875 1714.449951171875 1619.81005859375 1373.0400390625 962.41998291015625 835.4000244140625 853.84002685546875 926.04998779296875 1192.5400390625 1497.77001953125 1820.56005859375 2151.840087890625 2137.3701171875 2047.4300537109375 1890.0799560546875 1768.010009765625 1743.9200439453125 1976.5999755859375 2216.77001953125 2450.2900390625 2080.89990234375 1987.050048828125 2309.469970703125 2259.419921875 2059.6201171875 1793.06005859375 1606.97998046875 1411.030029296875 1235.56005859375 1287.0799560546875 1587.81005859375 1891.5 1982.030029296875 2178.93994140625 2235.7099609375 2384.2900390625 2389.3798828125 2491.5400390625 2479.830078125 2538.860107421875 2341.10009765625 2449.010009765625 2419.14990234375 2496.2099609375 2624.27001953125 2441.39990234375 2251.659912109375 2147.510009765625 2210.219970703125 2031.75 1728.010009765625 1501.81005859375 1687.43994140625 1975.6099853515625 2047.5799560546875
1400.5400390625 1586.56005859375 1765.300048828125 2048.219970703125 2213.830078125 1991.8499755859375 2086.3701171875 2360.969970703125 2481.6201171875 2579.14990234375 2391.699951171875 2237.820068359375 1998.8900146484375 1919.0899658203125 1651.4599609375 1751.56005859375 1736.8499755859375 1808.8599853515625 1826.25 1621.030029296875 1546.06005859375 1546.550048828125 1601.1800537109375 1547.47998046875 1715.8900146484375 1613.8599853515625 1507.52001953125 1315.3800048828125 1213.4000244140625 1187.1400146484375 1240.030029296875 1332.93994140625 1393.449951171875 1417.1500244140625 1393.77001953125 1434.81005859375 1416.0899658203125 1458.9300537109375 1142.7099609375 1162.3399658203125 1406.9300537109375 1702.1800537109375 1648.8800048828125 1351.1500244140625 1172.510009765625 1215.31005859375 1111.6800537109375 970.21002197265625 966 964.72998046875 956.6099853515625 933.8900146484375 938.030029296875 964.6500244140625 1035.56005859375 1211.25 1345.72998046875 1448.469970703125 1214.6600341796875 1435.8199462890625 1687.4300537109375 1422.0999755859375 1520.8800048828125 1781.43994140625 2106.7900390625 2205.590087890625 2485.81005859375 2456.31005859375 2365.5400390625 2217.6298828125 1831.8199462890625 1491.5400390625 1487.219970703125 1927.949951171875 2270.02001953125 2604.659912109375 2473.360107421875 2118.330078125 1835.4300537109375 2088.31005859375 2160.280029296875 2298.5400390625 2304.89990234375 1981.969970703125 1731.3800048828125 1396.219970703125 1155.1099853515625 938.96002197265625 1197.949951171875 1518.199951171875 1845.9300537109375 2023.9200439453125 2232.35009765625 2280.75 2038 1986.5 2265.889892578125 1958.6500244140625 1646.3399658203125 1960.219970703125 2234.090087890625 2403.3701171875 2234.02001953125 2094.7099609375 2224.570068359375 2130.39990234375 2269.27001953125 2173.510009765625 2322.919921875 2205.7099609375 2094.4599609375 2174.639892578125 2229.550048828125 2266.929931640625 2206.8701171875 2247.7099609375 1906.72998046875 1572.0799560546875 1424.4300537109375 1209.449951171875 990.96002197265625 857.260009765625 833.760009765625 885.72998046875 1181.8900146484375 1538.5799560546875 1896.510009765625 1972.6800537109375 1869.780029296875 1779.4100341796875 1631.3299560546875 1723.6800537109375 1983.1300048828125 2237.64990234375 2375.9599609375 2387.139892578125 2025.9599609375 1969.8599853515625 2330.080078125 2111.97998046875 1871.7099609375 1666.969970703125 1538.1300048828125 1309.27001953125 1228.5999755859375 1415.4300537109375 1599.02001953125 1971.1400146484375 2215.7099609375 2357.840087890625 2411.889892578125 2327.18994140625 2189.719970703125 2252.360107421875 2297.719970703125 2496.419921875 2183.9599609375 2315.679931640625 2327.169921875 2373.889892578125 2567.9599609375 2299.8701171875 2288.10009765625 1986.75 1964.550048828125 1847.0799560546875 1658.6600341796875 1469.81005859375 1573.3199462890625 1773.3599853515625 1841.030029296875
1347.0400390625 1561.6300048828125 1791.0799560546875 2046.72998046875 2365.260009765625 2147.93994140625 2179.6201171875 2302.449951171875 2514.070068359375 2554.530029296875 2381.5400390625 2126.14990234375 1992.780029296875 1771.699951171875 1689.3399658203125 1486.81005859375 1497.8199462890625 1421.0799560546875 1394.7900390625 1374.6099853515625 1358.3299560546875 1346.6800537109375 1355.8199462890625 1401.6800537109375 1342.1600341796875 1272.0999755859375 1240.4100341796875 1261.719970703125 1338.06005859375 1386.530029296875 1431.22998046875 1513.27001953125 1508.8499755859375 1511.02001953125 1608.75 1743 1651.0999755859375 1350.530029296875 1081.3599853515625 1245.050048828125 1448.72998046875 1597.969970703125 1644.9599609375 1555.219970703125 1467.93994140625 1437.4599609375 1274.4100341796875 1174.56005859375 1144.2099609375 1088.3800048828125 973.83001708984375 949.04998779296875 929.6500244140625 924.6300048828125 914.65997314453125 1098.2099609375 1176.6400146484375 1261.1400146484375 1094.22998046875 1234.699951171875 1317.25 1301.8800048828125 1541.1400146484375 1813.02001953125 2036.219970703125 2312.929931640625 2408.35009765625 2292.919921875 2289.5400390625 2143.1201171875 1771.0699462890625 1436.699951171875 1477.1099853515625 1869.5799560546875 2142.6298828125 2424.8798828125 2229.199951171875 2043.56005859375 1791.8199462890625 1990.530029296875 2198 2429.070068359375 2381.60009765625 2085.909912109375 1820.9200439453125 1602.06005859375 1277.4599609375 910.8800048828125 1063.6800537109375 1277.9100341796875 1472.8800048828125 1735.050048828125 1987.6800537109375 2197.7099609375 1959.72998046875 1775 2040.4100341796875 1987.93994140625 1587.260009765625 1844.81005859375 2122.429931640625 2299.2900390625 2204.510009765625 2056.35009765625 1845.9300537109375 2056.3701171875 2144.159912109375 2054.43994140625 2103.409912109375 1971.699951171875 1976.219970703125 2276.050048828125 2083.580078125 2358.18994140625 2118.5 2214.8701171875 1920.949951171875 1810.31005859375 1717.02001953125 1402.300048828125 1047.199951171875 833.52001953125 832.45001220703125 851.59002685546875 1192.4000244140625 1566.530029296875 1741.18994140625 1662.719970703125 1626.0999755859375 1610.93994140625 1810.199951171875 2008.8900146484375 2239.3701171875 2320.22998046875 2403.570068359375 2195.929931640625 1952.56005859375 1939.6800537109375 2296.389892578125 2116.3701171875 1828.469970703125 1692.6500244140625 1417.43994140625 1307.06005859375 1228.5999755859375 1439.4200439453125 1793.56005859375 1984.68994140625 2156.64990234375 2415.89990234375 2421.669921875 2372.6298828125 2191.1201171875 2003.8499755859375 2121.679931640625 2169.7099609375 2028.6600341796875 2002.219970703125 2217.639892578125 2474.68994140625 2422 2225.719970703125 2088.7099609375 1957.5999755859375 1784.25 1690.4000244140625 1554.93994140625 1468.6500244140625 1564.0799560546875 1762.4200439453125 1956.6099853515625
1307.8900146484375 1527.9300537109375 1973.6500244140625 2073.1298828125 2298.1201171875 2380.139892578125 2174.6201171875 2356.6298828125 2535.72998046875 2426.260009765625 2222.860107421875 2064.719970703125 2060.1201171875 2001.8199462890625 1858.22998046875 1724.699951171875 1660.3399658203125 1608.9000244140625 1584.8499755859375 1567.1300048828125 1626 1600.75 1472.9100341796875 1395.1400146484375 1328.0799560546875 1355.8499755859375 1411.0699462890625 1562 1548.0699462890625 1679.97998046875 1621.93994140625 1651.5999755859375 1678.6800537109375 1763.449951171875 1789.1400146484375 1572.4599609375 1367.3599853515625 1106.3199462890625 1157.3399658203125 1359.969970703125 1459.800048828125 1610.56005859375 1879.8399658203125 1751.449951171875 1783.9300537109375 1551.8499755859375 1489.97998046875 1410.3299560546875 1228.06005859375 1434.3499755859375 1287.7900390625 1204.1600341796875 1110.8299560546875 1020.6400146484375 939.5 1007.6400146484375 1046.06005859375 1009.82000732421875 1097.260009765625 1103.6400146484375 1164.8800048828125 1341.56005859375 1568.6800537109375 1687.75 1947.3399658203125 2087.199951171875 2275.469970703125 2294.409912109375 2070.199951171875 2084.3701171875 1758.1700439453125 1416.2099609375 1393.050048828125 1673.43994140625 1972.9200439453125 2255.699951171875 2149.110107421875 1912.75 1743.699951171875 2072.570068359375 2133.719970703125 2173.27001953125 2219.330078125 1975.8399658203125 1865.0799560546875 1491.5 1215.719970703125 892.46002197265625 990.28997802734375 1346.9200439453125 1633.3299560546875 1737.6500244140625 1961.550048828125 2003.6099853515625 1882.81005859375 1686.719970703125 1984.6500244140625 1889.3199462890625 1564.47998046875 1685.6099853515625 2037.43994140625 2139.590087890625 2102.300048828125 1962.3499755859375 1710.31005859375 1982.6700439453125 1897.31005859375 1993.050048828125 1903.550048828125 1806.6800537109375 1987.5 2188.409912109375 1959.5400390625 2254.610107421875 2003.8399658203125 2096.72998046875 2145.949951171875 1892.9300537109375 1555.699951171875 1418.5799560546875 989.45001220703125 835.030029296875 831.71002197265625 839.46002197265625 1159.0400390625 1431.300048828125 1402.1700439453125 1455.199951171875 1573.5699462890625 1757.0400390625 1971.06005859375 2179.739990234375 2199.43994140625 2200.06005859375 2370.409912109375 2032.7900390625 1843.8399658203125 2009.1700439453125 2088.1298828125 2045.22998046875 1902.68994140625 1605.9200439453125 1317.969970703125 1250.8900146484375 1196.18994140625 1348.3499755859375 1586.6800537109375 1815.06005859375 2035.9300537109375 2246.169921875 2522.81005859375 2440.280029296875 2447.81005859375 2283.35009765625 1953.030029296875 1901.0699462890625 1837.2099609375 1992.93994140625 2122.949951171875 2319.340087890625 2336.969970703125 2178.389892578125 2101.699951171875 1983.1400146484375 1886.5899658203125 1648.969970703125 1484.719970703125 1464.97998046875 1514.3299560546875 1708.5999755859375 1903.25
1301.1700439453125 1623.77001953125 1674.02001953125 1883.1099853515625 2046.1099853515625 2234.679931640625 2312.8798828125 2343.780029296875 2471.780029296875 2519.659912109375 2301.080078125 2178.22998046875 2136.639892578125 2176.52001953125 1844.6700439453125 1833.6400146484375 1784.5699462890625 1795.1800537109375 1792.18994140625 1739.56005859375 1741.0799560546875 1700.9100341796875 1511.800048828125 1517.2900390625 1474.52001953125 1582.4000244140625 1688.27001953125 1567.06005859375 1701.699951171875 1795.31005859375 1804.510009765625 1817.780029296875 1781.199951171875 1568.719970703125 1460.4300537109375 1310.6700439453125 1138.8499755859375 1258.68994140625 1332.780029296875 1424.300048828125 1688.219970703125 1653.780029296875 1864.93994140625 2057.550048828125 1840.3299560546875 1725.3800048828125 1703.43994140625 1603.9599609375 1427.27001953125 1602.0799560546875 1545.719970703125 1397.56005859375 1312 997.09002685546875 960.8599853515625 898 911.9000244140625 1002.280029296875 1232.300048828125 1374.9100341796875 1352.1300048828125 1223.9300537109375 1424.4599609375 1573.510009765625 1755.1500244140625 1860.6700439453125 2031.8399658203125 2264.050048828125 1982.3399658203125 1831.8299560546875 1589.8800048828125 1419.0799560546875 1373.8299560546875 1570.449951171875 1848.72998046875 1953.3800048828125 1948.1800537109375 1731.1500244140625 1839.6800537109375 2120.8701171875 2015.93994140625 2125.56005859375 2020.449951171875 1740.280029296875 1666.77001953125 1444.0699462890625 1205.760009765625 890.1300048828125 910.280029296875 1212.550048828125 1279.8599853515625 1608.22998046875 1777.8499755859375 1818.949951171875 1724.43994140625 1618.260009765625 1846.6800537109375 1817.6300048828125 1483.3399658203125 1615.06005859375 1889.0799560546875 1975.469970703125 1979.6800537109375 1747.56005859375 1620.4300537109375 1704.2900390625 1671.530029296875 1881.4300537109375 1755.6500244140625 1725.760009765625 1851.219970703125 1913.199951171875 1883.3599853515625 2194.760009765625 2038.3900146484375 1941.6400146484375 2047.699951171875 1861.9100341796875 1594.510009765625 1322.260009765625 1001.3900146484375 833.280029296875 845.1500244140625 879.030029296875 1075.8599853515625 1163.5400390625 1418.97998046875 1625.4100341796875 1907.4000244140625 2090.68994140625 2184.219970703125 2181.830078125 2031.969970703125 2194.02001953125 2171.6201171875 1903.9300537109375 1848.3199462890625 2214.280029296875 2009.6400146484375 1852.77001953125 1592.3800048828125 1550.5400390625 1255.8900146484375 1181.469970703125 1202.510009765625 1538.4300537109375 1864.969970703125 1980.050048828125 2202.9599609375 2308.7900390625 2450.56005859375 2323.530029296875 2225.22998046875 2121.090087890625 1954.68994140625 1935.47998046875 1771.2099609375 1799.1300048828125 2149.780029296875 2347.760009765625 2434.199951171875 2392.639892578125 2139.10009765625 1993.260009765625 1775.9100341796875 1483.8499755859375 1403.9200439453125 1446.719970703125 1677.3900146484375 1622.9599609375 1663.1800537109375
1319.4000244140625 1327.5999755859375 1571.1700439453125 1756.6400146484375 1880.81005859375 2070.97998046875 2358.25 2455.449951171875 2544 2642.56005859375 2578 2389.860107421875 2318.1201171875 2192.56005859375 1946.1800537109375 1949.780029296875 1899.969970703125 1881.77001953125 1892.780029296875 1827.699951171875 1837.6800537109375 1744.7900390625 1700.8299560546875 1697.3499755859375 1697.530029296875 1787.5699462890625 1793.1600341796875 1673.3800048828125 1833.75 1885.1600341796875 1722.9200439453125 1588.3800048828125 1464.75 1298.22998046875 1233.1300048828125 1254.8599853515625 1316.47998046875 1523.31005859375 1612.56005859375 1324.5 1686.9200439453125 1945.199951171875 1784.5999755859375 2147.2900390625 2003.7900390625 1830.5799560546875 1865.280029296875 1781.510009765625 1717.75 1771.8399658203125 1740.6800537109375 1526.1500244140625 1266.949951171875 1160.1099853515625 1068.050048828125 917.3800048828125 886.46002197265625 919.07000732421875 1156.3199462890625 1395.510009765625 1671.72998046875 1615.4100341796875 1517.5699462890625 1464.469970703125 1599.3499755859375 1748.56005859375 1880.550048828125 1915.06005859375 1848.8900146484375 1792.530029296875 1650.43994140625 1447.510009765625 1387.8299560546875 1455.6800537109375 1557.5899658203125 1668.56005859375 1776.4000244140625 1671.6300048828125 1936.3599853515625 2043.1600341796875 1858.4599609375 2056.820068359375 1938.8599853515625 1666.9000244140625 1376.800048828125 1198 1123.9200439453125 900.79998779296875 892.40997314453125 1072.52001953125 1341.93994140625 1545.8900146484375 1500.5999755859375 1671.4599609375 1690.6600341796875 1477.530029296875 1629.18994140625 1674.27001953125 1367.6300048828125 1565.8599853515625 1646.5 1866.010009765625 1688.4300537109375 1586.7900390625 1606.550048828125 1527.219970703125 1588.760009765625 1634.300048828125 1501.0999755859375 1556.6800537109375 1601.1300048828125 1708.5 1966.1600341796875 2079.360107421875 1969.8199462890625 1762.030029296875 1893.550048828125 1786 1534.1800537109375 1307.6800537109375 1002.1500244140625 829.28997802734375 850.3599853515625 902.96002197265625 1036.719970703125 1130.780029296875 1350.1700439453125 1651.6800537109375 1956.780029296875 1938.0699462890625 1942.3399658203125 1914.3699951171875 2069.840087890625 2165.93994140625 1930.050048828125 1737.8900146484375 1907.550048828125 2323.719970703125 2274.469970703125 2028.4300537109375 1718.969970703125 1471 1185.5400390625 1125.550048828125 1211.8499755859375 1610.3299560546875 1847.8399658203125 1988.719970703125 2157.929931640625 2289.3701171875 2445.300048828125 2348.260009765625 2248.590087890625 2178.64990234375 2133.7099609375 2198.97998046875 2005.300048828125 1677.8800048828125 1900.1400146484375 2152.1298828125 2311.179931640625 2223.22998046875 2014.050048828125 1772.1700439453125 1676.9300537109375 1404.1300048828125 1376.9300537109375 1530.6500244140625 1679.449951171875 1899.22998046875 1855.4000244140625
1615.699951171875 1246.510009765625 1487.7099609375 1662.5 1771.5699462890625 1977.0699462890625 2352.610107421875 2442.550048828125 2258.409912109375 2307.31005859375 2308.909912109375 2347.050048828125 2500.840087890625 2278.22998046875 2111.590087890625 2110.800048828125 1998.93994140625 1989.31005859375 1993.5699462890625 1940.0899658203125 1987.760009765625 1872.7900390625 1829.4200439453125 1804.1099853515625 1859.8499755859375 1880.1800537109375 1854.9100341796875 1846.280029296875 1919.3599853515625 1718.93994140625 1548.1800537109375 1478.199951171875 1566.6400146484375 1299.949951171875 1584.760009765625 1473.93994140625 1287.52001953125 1663.6800537109375 1914.219970703125 1574.5 1512.6700439453125 1920.22998046875 1872.0400390625 2038.719970703125 2192.110107421875 2022.8299560546875 1998.31005859375 2084.570068359375 1961.280029296875 1888.75 1628.199951171875 1446.6500244140625 1173.3800048828125 1235.199951171875 1367.9599609375 1064.0899658203125 957.97998046875 872.8800048828125 1112.1300048828125 1488.1600341796875 1776.719970703125 1946.6400146484375 1892.0999755859375 1792.06005859375 1607.56005859375 1666 1745.7099609375 2019.8800048828125 1991.800048828125 1969.050048828125 1834.719970703125 1648.77001953125 1367.1400146484375 1394.5899658203125 1731.9300537109375 1795.1300048828125 1655.68994140625 1791.06005859375 1855.93994140625 1803.93994140625 1768.6500244140625 1928.0699462890625 1814.1099853515625 1551.6600341796875 1390.510009765625 1198.550048828125 1139.6800537109375 898.8900146484375 862.97998046875 1031.6500244140625 1168.2099609375 1284.9200439453125 1350.510009765625 1446.72998046875 1487.56005859375 1338.31005859375 1505.56005859375 1516.5799560546875 1311.010009765625 1528.030029296875 1714.1400146484375 1718.699951171875 1628.9200439453125 1415.9599609375 1540.43994140625 1416.949951171875 1493.3199462890625 1570.4599609375 1333.22998046875 1392.760009765625 1549.6800537109375 1762.31005859375 1917 1923.81005859375 1796.780029296875 1533.3900146484375 1626.0699462890625 1696.18994140625 1525.3599853515625 1287.31005859375 886.59002685546875 831.030029296875 840.6400146484375 891.03997802734375 1122.1800537109375 1338.239990234375 1336.2099609375 1599.550048828125 1743.280029296875 1709.9000244140625 1811.25 1975.969970703125 2090.68994140625 1904.1600341796875 1689.6600341796875 1817.5999755859375 2093.39990234375 2347.050048828125 2160.02001953125 2213.010009765625 2003.4300537109375 1561.81005859375 1143.31005859375 1106.4300537109375 1263.1800537109375 1590.530029296875 1849.199951171875 1922.7099609375 2134.0400390625 2346.22998046875 2546.820068359375 2481.610107421875 2500.320068359375 2381.389892578125 2334.639892578125 2256.3701171875 2042.1600341796875 1791.52001953125 1687.260009765625 1951.2099609375 2200.419921875 2132.050048828125 2027.52001953125 1795.31005859375 1447.969970703125 1335.77001953125 1384.6300048828125 1600.1800537109375 1873.3499755859375 2054.6201171875 1888.56005859375
1483.27001953125 1260.0899658203125 1318.02001953125 1488.6500244140625 1619.4300537109375 1885.6800537109375 2229.8701171875 2263.77001953125 2078.4599609375 2196.3701171875 2039.6500244140625 2066.510009765625 2204.64990234375 2245.18994140625 2197.510009765625 2212.260009765625 2125.530029296875 2138.6201171875 2168.409912109375 2090.110107421875 2066.169921875 1979.31005859375 1946.1400146484375 1930.449951171875 1946.5 1994.68994140625 1982.7099609375 1986.8299560546875 1786.3399658203125 1628.5699462890625 1666.469970703125 1755.5799560546875 1768.8199462890625 1402.780029296875 1691.1800537109375 1647.5400390625 1354.0799560546875 1553.9100341796875 1972.550048828125 1781.6500244140625 1487.8199462890625 1821.02001953125 2090.27001953125 2061.969970703125 2326.550048828125 2242.320068359375 2159.199951171875 1940.9000244140625 1862.5699462890625 1643.3299560546875 1457.6600341796875 1254.9100341796875 1183.06005859375 1346.9200439453125 1504.31005859375 1206.8900146484375 1211.31005859375 874.22998046875 933.1500244140625 1310.5799560546875 1552.3299560546875 1946.0799560546875 1973.1300048828125 1976.7900390625 1783.7099609375 1825.010009765625 1954.969970703125 2043.0699462890625 1942.5999755859375 1849.5799560546875 1804.0999755859375 1749.0400390625 1337.030029296875 1328.1099853515625 1615.800048828125 1699.7099609375 1600.780029296875 1693.4300537109375 1649.469970703125 1635.6800537109375 1719.5999755859375 1718.6800537109375 1770.3399658203125 1800.7099609375 1733.8199462890625 1650.4000244140625 1330.699951171875 973.280029296875 826.71002197265625 1124.6800537109375 1319.27001953125 1295.4300537109375 1302.550048828125 1343.6800537109375 1314.52001953125 1289.510009765625 1321.6600341796875 1315.6400146484375 1279.6600341796875 1424.1500244140625 1496.02001953125 1501.52001953125 1358.4599609375 1356.1400146484375 1524.9300537109375 1309.699951171875 1359.0799560546875 1296.8399658203125 1320.449951171875 1543.6600341796875 1632.6300048828125 1686.1800537109375 1600.1800537109375 1725.72998046875 1749.5899658203125 1661.1099853515625 1314.1500244140625 1379.1800537109375 1300.1099853515625 992.90997314453125 826.72998046875 853.4000244140625 875.83001708984375 892.4000244140625 1187.6099853515625 1372.530029296875 1404.47998046875 1462.6300048828125 1599.6700439453125 1795.050048828125 1961.199951171875 1988.6400146484375 1861.030029296875 1631.1700439453125 1782.43994140625 2043.3299560546875 2243.5 2147.949951171875 1897.8800048828125 1883.25 1795.9200439453125 1420.31005859375 1096.9300537109375 1135.0699462890625 1245.699951171875 1390.68994140625 1608.030029296875 1827.4100341796875 1998.06005859375 2193.159912109375 2387.9599609375 2343.97998046875 2340.800048828125 2447.0400390625 2391.3701171875 2234.6201171875 2053.179931640625 1821.530029296875 1599.6500244140625 1807.3800048828125 1971.8800048828125 2110.0400390625 1996.9200439453125 1780.510009765625 1417.75 1303.0999755859375 1409.31005859375 1731.22998046875 2061.159912109375 2322.969970703125 2137.1201171875
1650.760009765625 1414.1800537109375 1172.8399658203125 1465.5799560546875 1699.3800048828125 1992.27001953125 2033.27001953125 2143.6298828125 1887.02001953125 1951.56005859375 1837.0999755859375 1916.31005859375 1985.8199462890625 2164.3701171875 2324.06005859375 2239.030029296875 2166.2099609375 2295.949951171875 2281.02001953125 2198.97998046875 2109.919921875 2056.550048828125 2023.2900390625 2064.1201171875 2008.18994140625 2092.3701171875 2109.56005859375 2079.139892578125 1941.719970703125 2036.1700439453125 1920.6300048828125 1915.6099853515625 1889.5699462890625 1507.949951171875 1729.0400390625 1830.68994140625 1449.2900390625 1544.8499755859375 1869.5699462890625 2047.550048828125 1646.550048828125 1745.31005859375 2033.3800048828125 2207.3701171875 2308.75 2151.889892578125 1940.550048828125 1752.3499755859375 1522 1435.1099853515625 1354.0699462890625 1249.3800048828125 1300.5799560546875 1626.1099853515625 1607.6800537109375 1401.25 1407.3399658203125 1051.56005859375 856.969970703125 1086.56005859375 1434.1600341796875 1756.4000244140625 1949.31005859375 2025.27001953125 1950.719970703125 1905.72998046875 1948.1800537109375 2044.81005859375 2090.6201171875 2050.429931640625 1867.77001953125 1704.1300048828125 1476.75 1275.0799560546875 1456.530029296875 1653.3800048828125 1661.780029296875 1680.1700439453125 1535.3499755859375 1652.5899658203125 1639.8499755859375 1605.4200439453125 1671.1800537109375 1691.969970703125 1595.030029296875 1565.760009765625 1350.6800537109375 942.82000732421875 831.280029296875 1094.5 1338.9300537109375 1343.3299560546875 1320.0799560546875 1242.6800537109375 1191.3299560546875 1198.3499755859375 1227.1800537109375 1236.5699462890625 1243.5999755859375 1306.699951171875 1277.1800537109375 1253.8499755859375 1169.1800537109375 1302.43994140625 1313.7099609375 1282.25 1188.56005859375 1193.3499755859375 1259.9300537109375 1353.9000244140625 1382.31005859375 1462.81005859375 1319.1099853515625 1462.969970703125 1514.6800537109375 1503.6600341796875 1350.800048828125 1073.8299560546875 1033.530029296875 843.969970703125 839.6500244140625 882.469970703125 926.69000244140625 1026.0899658203125 1240.3800048828125 1367.3399658203125 1508.4100341796875 1507.81005859375 1650.0799560546875 1845.4000244140625 1771.4000244140625 1610.02001953125 1554.4300537109375 1653.760009765625 1923.1400146484375 2140.27001953125 2285.949951171875 2233.85009765625 1934.75 1638.25 1504.5 1254.3800048828125 1092.3199462890625 1103.6099853515625 1384.5999755859375 1658.4200439453125 1665.6600341796875 1658.25 1921.4599609375 2057.510009765625 2075.18994140625 2151.7900390625 2262.070068359375 2368.5 2303.31005859375 2207.6201171875 2104.860107421875 1933.72998046875 1637.52001953125 1627.3800048828125 1818.5799560546875 2093.6201171875 1785.8900146484375 1614.1700439453125 1299.0699462890625 1291.3299560546875 1590.1700439453125 1930.6800537109375 2220.840087890625 2212.9599609375 2402.52001953125
1726.77001953125 1384.27001953125 1050.9599609375 1377.260009765625 1809.1800537109375 1836.7900390625 1872.27001953125 1937.5400390625 1821.800048828125 1683.9000244140625 1681.3800048828125 1740.219970703125 1836.530029296875 2016.81005859375 1964.9599609375 1882.9100341796875 1862.3900146484375 2050.18994140625 1885.43994140625 1893.4300537109375 1862.31005859375 1851.25 1785.280029296875 1778.4300537109375 1823.4100341796875 1921.22998046875 1956.06005859375 2137.47998046875 2386.64990234375 2139.280029296875 2242 2082.090087890625 1835.050048828125 1672.5 1866.9200439453125 1988.800048828125 1566.56005859375 1585.5899658203125 1880.1700439453125 2164.35009765625 1830.02001953125 1666.8199462890625 1967.5999755859375 2276.4599609375 2120.3701171875 1966.8299560546875 1810.3499755859375 1642.6300048828125 1763.5999755859375 1493.02001953125 1466.3800048828125 1448.06005859375 1571.510009765625 1700.4000244140625 1697.719970703125 1709.2900390625 1531.6600341796875 1223.5799560546875 960.46002197265625 888.6099853515625 1251.5799560546875 1557.1800537109375 1901.9000244140625 2083.360107421875 1963.550048828125 1798.56005859375 1690.010009765625 1836.8800048828125 1779.4100341796875 1988.6300048828125 1943.9100341796875 1821.7099609375 1641.52001953125 1295.75 1249.449951171875 1503.9000244140625 1642.9300537109375 1603.9300537109375 1505.3900146484375 1566.27001953125 1589.47998046875 1505.5699462890625 1514.5 1449.5400390625 1226.449951171875 1273.6800537109375 1174.31005859375 844.47998046875 839.260009765625 1058.199951171875 1201.780029296875 1259.300048828125 1238.9000244140625 1191.010009765625 1121.3900146484375 1144.1600341796875 1184.2099609375 1118.5400390625 1282.949951171875 1302.22998046875 1247.4200439453125 1200.4300537109375 1089.3199462890625 1132.7099609375 1172.02001953125 1155.4300537109375 1067.06005859375 1059.280029296875 1149.2099609375 1156.5400390625 1182.2900390625 1206.4599609375 1203.75 1214.6099853515625 1229.6800537109375 1255.030029296875 1183.6099853515625 1057.5899658203125 897.94000244140625 847 831.46002197265625 882.02001953125 975.95001220703125 1020.91998291015625 1112.800048828125 1335.1800537109375 1527.0699462890625 1643.719970703125 1684.5799560546875 1688.2900390625 1488.3599853515625 1464.72998046875 1660.6400146484375 1861.550048828125 2080.340087890625 2219.679931640625 2238.1298828125 2046.4599609375 1863.25 1593.4100341796875 1299.27001953125 1087.3499755859375 1087.510009765625 1200.280029296875 1390.719970703125 1693.3800048828125 1926.6300048828125 1872.52001953125 1732.8199462890625 1817.31005859375 2057.050048828125 2161.929931640625 2227.97998046875 2333.179931640625 2223.340087890625 2037.530029296875 1944.1800537109375 1804.969970703125 1832.219970703125 1554.97998046875 1599.4100341796875 1726.1400146484375 1609.780029296875 1368.27001953125 1276.300048828125 1316.7099609375 1555.0400390625 1796.75 1870.6099853515625 1981.77001953125 2129.530029296875
1837.1300048828125 1355.760009765625 1005.84002685546875 1220.6300048828125 1591.81005859375 1537.2099609375 1585.3299560546875 1661.6800537109375 1668.969970703125 1494.4599609375 1509.6800537109375 1640.1500244140625 1638.550048828125 1766.0400390625 1666.06005859375 1624.47998046875 1733.800048828125 1813 1593.8599853515625 1599.030029296875 1626.5 1584.43994140625 1480.3599853515625 1603.8299560546875 1617.81005859375 1759.300048828125 1822.260009765625 2209.840087890625 2185.18994140625 2326.760009765625 2325.949951171875 2264.77001953125 1814.77001953125 1679.0999755859375 2083.929931640625 2061.27001953125 1640.199951171875 1606.3199462890625 2013.199951171875 2396.969970703125 1980.75 1816.5699462890625 1862.0400390625 2135.699951171875 2055.10009765625 1885.0799560546875 1867.5799560546875 1908.260009765625 1839.1800537109375 1439.3399658203125 1661.1800537109375 1568.1500244140625 1798.0999755859375 1909.300048828125 1952.47998046875 1830.699951171875 1604.06005859375 1323.5 1039.260009765625 846.8599853515625 1251.8800048828125 1556.1099853515625 1581.8800048828125 1835.18994140625 1957.2900390625 1773.6600341796875 1415.8399658203125 1501.02001953125 1636.699951171875 1973.31005859375 1832.56005859375 1755.949951171875 1729.6800537109375 1501.530029296875 1253.7099609375 1336.699951171875 1604.800048828125 1590.4599609375 1464.18994140625 1426.18994140625 1477.1500244140625 1322.300048828125 1297.1800537109375 1144.5 1059.030029296875 1074.3299560546875 985.07000732421875 815.58001708984375 929.530029296875 1122.9599609375 1129.0699462890625 1056.260009765625 1052.469970703125 1067.550048828125 1059.6300048828125 1050.780029296875 1052.6800537109375 1176.47998046875 1244.2900390625 1182.8199462890625 1140.5999755859375 1170.81005859375 1076.9200439453125 1156.8399658203125 1136.3299560546875 1095.0699462890625 981.41998291015625 1014.280029296875 1012.6500244140625 1036.2900390625 1060.9599609375 1078.280029296875 1096.4300537109375 1096.5400390625 1095.72998046875 1092.3399658203125 1007.58001708984375 877.29998779296875 832.3599853515625 822.8599853515625 832.5999755859375 859.78997802734375 1125.949951171875 1240.260009765625 1222.949951171875 1359.530029296875 1496.449951171875 1608.6800537109375 1601.0400390625 1377.31005859375 1361.4300537109375 1546.1099853515625 1778.6500244140625 1879.4599609375 2070.31005859375 2140.300048828125 2039.6700439453125 1798.3299560546875 1708.9300537109375 1450.3599853515625 1114.8800048828125 1083.25 1109.3499755859375 1375.75 1636.3800048828125 1622.81005859375 1694.300048828125 1857.0799560546875 1975.97998046875 1953.469970703125 1907.22998046875 1947.5799560546875 2139.2900390625 2250.070068359375 2356.39990234375 2095 2024.72998046875 2013.81005859375 1821.469970703125 1756.47998046875 1551.0999755859375 1389.6800537109375 1349.31005859375 1268.27001953125 1288.1800537109375 1470.9200439453125 1699.3499755859375 1795.18994140625 1789.719970703125 1798.3800048828125 1981.5
1775.3299560546875 1286.56005859375 978.8900146484375 955.33001708984375 1108.31005859375 1158.8800048828125 1306.06005859375 1332.2900390625 1319.6600341796875 1256.06005859375 1314.949951171875 1225.5699462890625 1327.47998046875 1401.6500244140625 1420.280029296875 1386.8199462890625 1559.06005859375 1477.760009765625 1334.5699462890625 1300.5400390625 1363.4200439453125 1327.22998046875 1306.219970703125 1355.1800537109375 1414.3199462890625 1502.77001953125 1751.6700439453125 1915.1099853515625 1937.9300537109375 2039.3599853515625 2215.760009765625 2227.820068359375 1913.1700439453125 1707.6800537109375 2023.2099609375 2183.14990234375 1792.050048828125 1624.1300048828125 1866.199951171875 2145.030029296875 2290.219970703125 2037.5 2019.5699462890625 2140.3701171875 2089.1201171875 1960.52001953125 2051.570068359375 2049.25 1758.760009765625 1505.6800537109375 1690.4300537109375 1706.3800048828125 2003.969970703125 1977.530029296875 1857.699951171875 1721.4599609375 1585.719970703125 1346.25 1021.52001953125 844.44000244140625 1152.260009765625 1531.969970703125 1230.06005859375 1589.280029296875 1640.6300048828125 1783.1300048828125 1466.1700439453125 1254.0899658203125 1678.68994140625 1979.5999755859375 1963.5699462890625 1875.77001953125 1762.449951171875 1625.949951171875 1400.9000244140625 1188.4100341796875 1506.43994140625 1509.22998046875 1456.8900146484375 1340.97998046875 1337.22998046875 1270.6800537109375 906.66998291015625 800.3800048828125 761.78997802734375 734.780029296875 787.46002197265625 756.59002685546875 826.90997314453125 808.54998779296875 801.719970703125 799.90997314453125 804.09002685546875 861.75 927.54998779296875 963.6099853515625 1057.6700439453125 1018.02001953125 977.530029296875 838.84002685546875 843.53997802734375 972.59002685546875 1012.6400146484375 1036.0699462890625 1035.81005859375 961.6500244140625 929.25 933.219970703125 958.780029296875 982.9000244140625 1004.5999755859375 1022.9000244140625 1031.1400146484375 1020.09002685546875 1019.25 978.1500244140625 917.59002685546875 843.9000244140625 822.32000732421875 822.32000732421875 822.32000732421875 833.09002685546875 941.71002197265625 1080.780029296875 1230.010009765625 1330.050048828125 1450.969970703125 1532.530029296875 1456.1700439453125 1264.81005859375 1353.5799560546875 1493.31005859375 1662.8299560546875 1918.9200439453125 2037.8399658203125 1984.81005859375 1928.1600341796875 1677.449951171875 1320.030029296875 1181.719970703125 1079.31005859375 1082.25 1265.8800048828125 1568.06005859375 1851.949951171875 1819.4300537109375 1792.47998046875 1769.4100341796875 2032.280029296875 2183.60009765625 2055.25 2078.5400390625 2161.800048828125 2249.800048828125 2365.139892578125 2238.090087890625 2384.5400390625 2060.22998046875 1966.8299560546875 1955.75 1711.6099853515625 1462.2099609375 1262.780029296875 1286.3299560546875 1382.5699462890625 1654.7099609375 1990.0899658203125 2084.72998046875 2188.719970703125 2023.5 1957.1800537109375
1278.4000244140625 1131.9300537109375 1091.0699462890625 1030.469970703125 1066.510009765625 954.280029296875 853.4000244140625 1040.6400146484375 1000.77001953125 1013.25 889.77001953125 882.9000244140625 1052.010009765625 1021.280029296875 1160.4200439453125 1237.9200439453125 1287.010009765625 1157.4000244140625 1012.78997802734375 1092.6700439453125 1229.4300537109375 1336.010009765625 1419.6400146484375 1409.9000244140625 1349.5699462890625 1356.81005859375 1409.8599853515625 1542.31005859375 1587.4300537109375 1754.6300048828125 1932.1700439453125 2265.169921875 2056.8701171875 1727.3499755859375 1977.1500244140625 2237.090087890625 1864.530029296875 1700.800048828125 2008.449951171875 2106.14990234375 2292.590087890625 2239.199951171875 2216.760009765625 2233.35009765625 2230.97998046875 2182.72998046875 2213.179931640625 2012.449951171875 1704.780029296875 1621.300048828125 1806.280029296875 2016.010009765625 1930.199951171875 1831.8800048828125 1720.81005859375 1608.56005859375 1479.56005859375 1205.43994140625 1126.8199462890625 843.90997314453125 964.9000244140625 953.510009765625 1052.510009765625 1199.77001953125 1311.0899658203125 1488.6400146484375 1367.6400146484375 1094.780029296875 1653.260009765625 1855.8299560546875 1892.1700439453125 1798.6600341796875 1745.1099853515625 1690.6099853515625 1584.5400390625 1383.1600341796875 1198.7099609375 1415.280029296875 1419.300048828125 1315.68994140625 1226.18994140625 981.5 734.6500244140625 826.15997314453125 991.15997314453125 796.58001708984375 745.9000244140625 739.030029296875 740.9000244140625 748.219970703125 743.20001220703125 745.6400146484375 747.4000244140625 757.6300048828125 763.83001708984375 754.59002685546875 754.79998779296875 756.969970703125 758.77001953125 761.46002197265625 782.46002197265625 864.260009765625 934.6500244140625 880.030029296875 859.25 847.09002685546875 931.030029296875 956.78997802734375 956.280029296875 947.3800048828125 980.1400146484375 992.4000244140625 997.760009765625 990.71002197265625 976.41998291015625 950.59002685546875 914.280029296875 870.280029296875 822.32000732421875 822.32000732421875 827.760009765625 832.3800048828125 884.95001220703125 986.469970703125 1111.3499755859375 1254.5 1339.8800048828125 1387.2099609375 1291.1600341796875 1228.6400146484375 1396.3499755859375 1534.300048828125 1546.1400146484375 1665.6300048828125 1862.3599853515625 1903.3599853515625 1855.6300048828125 1518.27001953125 1290.010009765625 1099.1800537109375 1077.6700439453125 1193.4300537109375 1416.1300048828125 1686.949951171875 1890.510009765625 1987.7900390625 1935.1500244140625 1973.52001953125 1970.81005859375 2230.31005859375 2168.64990234375 2225.699951171875 2382.699951171875 2461.3701171875 2284.469970703125 2195.300048828125 2097.18994140625 2126 2006.0699462890625 1887.3599853515625 1611.31005859375 1308.72998046875 1241.68994140625 1285.6300048828125 1605.8299560546875 1570.4200439453125 1844.3399658203125 1974.280029296875 2129.02001953125 2439.550048828125 2230.570068359375
1197.5999755859375 1240.68994140625 1289.1400146484375 1225.0699462890625 1210.18994140625 1215.4599609375 1064.030029296875 860.280029296875 789.65997314453125 812.1500244140625 763.97998046875 736.280029296875 736.03997802734375 798.29998779296875 768.6500244140625 933.3599853515625 936.75 881.91998291015625 1128.75 1298.06005859375 1438.699951171875 1536.5699462890625 1718.5999755859375 1672.550048828125 1735.52001953125 1618.31005859375 1427.8299560546875 1626.8599853515625 1712.6099853515625 1592.8299560546875 1800.9300537109375 2092.2099609375 2223.510009765625 1945.760009765625 1819.8900146484375 2194.6201171875 2042.1600341796875 1989.719970703125 2001.5 2210.679931640625 2324.300048828125 2216.8798828125 2146.280029296875 2121.77001953125 2056.31005859375 2063.3701171875 2229.6201171875 2040 1758.72998046875 1831.5699462890625 2019.9000244140625 2157.2099609375 2054.679931640625 1923.760009765625 1778.43994140625 1615.3599853515625 1484.8599853515625 1258.300048828125 1247.469970703125 1057.06005859375 846.530029296875 830.030029296875 823.45001220703125 860.47998046875 953.280029296875 1134.4000244140625 1232.5 1031.6800537109375 1498.0400390625 1729.81005859375 1828.8499755859375 1797.22998046875 1686.27001953125 1614.4200439453125 1545.3900146484375 1453.6500244140625 1076.1800537109375 1347.9200439453125 1371.3299560546875 1240.6800537109375 953.08001708984375 768 813.28997802734375 1122.0899658203125 1207.9000244140625 1020.510009765625 893.77001953125 811.15997314453125 857.469970703125 878.969970703125 924.03997802734375 890.91998291015625 866.02001953125 807.40997314453125 836.28997802734375 807.83001708984375 856 778.8900146484375 818.280029296875 867.20001220703125 771.96002197265625 764.40997314453125 768.219970703125 768.53997802734375 803.1500244140625 790.1400146484375 795.79998779296875 1039.9100341796875 1058.31005859375 1020.75 1011.40997314453125 1029.0999755859375 1029.68994140625 1004.41998291015625 975.5999755859375 934.9000244140625 943.53997802734375 887.33001708984375 822.32000732421875 829.030029296875 833.3499755859375 834.40997314453125 865.530029296875 895.65997314453125 968.16998291015625 1074.75 1170.9000244140625 1207.4000244140625 1182.1800537109375 1212.4300537109375 1413.3800048828125 1338.5 1363.8399658203125 1582.6099853515625 1601.06005859375 1739.9599609375 1639.9300537109375 1393.3399658203125 1137.1600341796875 1076.3199462890625 1078 1382.3800048828125 1603.8199462890625 1753.77001953125 1911.8800048828125 2078 2163 2066.969970703125 2071.929931640625 2059.110107421875 2213.199951171875 2380.840087890625 2243.6298828125 2135.7900390625 2161.06005859375 2234.8701171875 2098 1780.550048828125 1883.3199462890625 1682.81005859375 1459.31005859375 1236 1243.56005859375 1418.9000244140625 1707.8299560546875 1863.3599853515625 1864.3800048828125 2022.9200439453125 2126.320068359375 2312.35009765625 2579.669921875
1359.5699462890625 1440.5999755859375 1467.3900146484375 1399 1483.1700439453125 1382.510009765625 1228.4200439453125 1080.1800537109375 1061.25 1072.0799560546875 1015.8499755859375 944.09002685546875 823.280029296875 766.030029296875 663.8900146484375 745.780029296875 760.09002685546875 987.1500244140625 1276.06005859375 1525.550048828125 1744.9300537109375 1861.0999755859375 1894.199951171875 1905.5899658203125 2069.4599609375 1945.18994140625 1529.9599609375 1725.06005859375 1857.6300048828125 1918.8299560546875 1695.010009765625 1987.8800048828125 2305.199951171875 2229.510009765625 1889.8800048828125 2050.35009765625 2334.679931640625 2153.300048828125 2262.449951171875 2373 2054.93994140625 1936.56005859375 1860.31005859375 1872.7900390625 1999 2153.260009765625 2314.1201171875 2233.070068359375 1993.0400390625 2175.10009765625 2360.909912109375 2472.6201171875 2183.530029296875 1934.260009765625 1836.06005859375 1670.469970703125 1526.8199462890625 1366.1800537109375 1671.56005859375 1419.06005859375 1231.9100341796875 1248.9300537109375 1046.43994140625 932.21002197265625 803.70001220703125 798.6500244140625 875.78997802734375 954.09002685546875 1283.0999755859375 1532.7900390625 1547.06005859375 1747 1700.8299560546875 1673.030029296875 1568.2099609375 1468.8900146484375 1241.9200439453125 993.8900146484375 1294.949951171875 1082.7900390625 792.09002685546875 727.32000732421875 891.84002685546875 1225.31005859375 1379.3199462890625 1314.719970703125 1179.260009765625 1116.8599853515625 1080.3499755859375 1126.5400390625 1252.7099609375 1243.469970703125 1169.800048828125 1061.0899658203125 1058.9200439453125 1046.06005859375 1071.530029296875 1119 1092.030029296875 1064.6600341796875 960.84002685546875 922.04998779296875 957.16998291015625 874.1500244140625 844.8499755859375 801.79998779296875 782.02001953125 887.9000244140625 1060.699951171875 1064.4200439453125 1082.56005859375 1081.280029296875 1072 1023.66998291015625 969.34002685546875 956.09002685546875 984.780029296875 930.69000244140625 825.1400146484375 824.510009765625 826.65997314453125 837.29998779296875 850.52001953125 879.71002197265625 918.4000244140625 988.1500244140625 1041.010009765625 1095.8299560546875 1131.2099609375 1147.72998046875 1216.5899658203125 1225.47998046875 1454.0899658203125 1503.780029296875 1456.22998046875 1478.75 1288.5899658203125 1192.4300537109375 1086.1099853515625 1076.3199462890625 1140.510009765625 1412.260009765625 1668.3399658203125 1897.8599853515625 2069.4599609375 2088.340087890625 1955.6300048828125 1816.27001953125 1925.9000244140625 2076.89990234375 2054.10009765625 2127.409912109375 2084.550048828125 1910.0400390625 1886.8800048828125 2076.590087890625 1954.3199462890625 1769.27001953125 1527.6400146484375 1564.52001953125 1327.97998046875 1233.760009765625 1305.3499755859375 1477.0999755859375 1749.97998046875 1837.9599609375 1988.5400390625 2110.300048828125 2226.330078125 2376.300048828125 2370.080078125
1598.0699462890625 1518.8499755859375 1702.800048828125 1658.81005859375 1613.56005859375 1510.300048828125 1322.6800537109375 1294.9300537109375 1306.510009765625 1287.8800048828125 1252.8800048828125 1115.8199462890625 1044.8199462890625 890.69000244140625 652.1400146484375 731.6500244140625 903.45001220703125 1159.4200439453125 1121.31005859375 1528.52001953125 1739.3199462890625 1962.5799560546875 2152.6298828125 2240.639892578125 2228.56005859375 2037.4300537109375 1650.0400390625 1727.9599609375 1954.77001953125 2231.820068359375 1938.9300537109375 1840.0999755859375 2123.7099609375 2468.8701171875 2285.8701171875 2115.780029296875 2205.909912109375 2335.469970703125 2524.909912109375 2295.31005859375 1935.5400390625 1937.780029296875 1895.1800537109375 1723.4100341796875 1877.06005859375 2060.75 2198.64990234375 2053.110107421875 2240.360107421875 2157.840087890625 2243.320068359375 2397.080078125 2319.9599609375 2048.68994140625 1890.4300537109375 1899.43994140625 1545.8800048828125 1590.3399658203125 1775.4100341796875 1570.0899658203125 1710.56005859375 1527.3299560546875 1287.56005859375 1352.4000244140625 1025.469970703125 933.469970703125 810.65997314453125 782.09002685546875 834.82000732421875 972.260009765625 1278.530029296875 1312.6800537109375 1538.1800537109375 1702.6700439453125 1593.1700439453125 1470.6300048828125 1359 982.71002197265625 1013.6500244140625 837.71002197265625 727.32000732421875 825.27001953125 981.969970703125 1298.800048828125 1340.43994140625 1398.1300048828125 1405.969970703125 1409.9100341796875 1364.3800048828125 1397.52001953125 1425.9300537109375 1434.6400146484375 1378.530029296875 1335.56005859375 1305.0699462890625 1293.3599853515625 1314.77001953125 1360.219970703125 1278.969970703125 1239.4200439453125 1194.9300537109375 1128.6800537109375 1075.5899658203125 992.75 897.1300048828125 800.969970703125 800.1400146484375 782.02001953125 827.32000732421875 944.719970703125 984.53997802734375 1035.1099853515625 997.59002685546875 1057.510009765625 985.32000732421875 928.34002685546875 906.57000732421875 877.1400146484375 815.19000244140625 827.71002197265625 873.71002197265625 841.16998291015625 847.71002197265625 892.91998291015625 916.469970703125 955.030029296875 962.97998046875 987.510009765625 1031.0400390625 991.08001708984375 1062.7099609375 1140.72998046875 1253.699951171875 1267.1800537109375 1379.800048828125 1437.47998046875 1322.530029296875 1150.1800537109375 1090.8399658203125 1086.469970703125 1205.449951171875 1430.5799560546875 1685.4599609375 1848.27001953125 1956.31005859375 1948.8399658203125 1736.0400390625 1667.27001953125 1937.8399658203125 2007.8900146484375 1822.4300537109375 1844.8399658203125 1941.969970703125 1746.800048828125 1772.3599853515625 1953.9100341796875 1990.010009765625 1746.8900146484375 1588.06005859375 1338.9300537109375 1259.6400146484375 1226.56005859375 1369.8499755859375 1679.2099609375 1733.050048828125 1816.530029296875 1883.31005859375 2070.639892578125 2318.820068359375 2376.830078125 2128.139892578125
1760.4599609375 1679 1906.260009765625 1875.719970703125 1722.9300537109375 1562.31005859375 1391.6300048828125 1503.5699462890625 1502.56005859375 1492.31005859375 1502.93994140625 1310.199951171875 1035.43994140625 738.77001953125 643.4000244140625 771.8900146484375 1103.2900390625 1501.9300537109375 1323.969970703125 1214.300048828125 1495.3800048828125 1692.1600341796875 1947.9200439453125 2130.449951171875 2432.969970703125 2117.320068359375 1777.18994140625 1699 2050.3701171875 2306.89990234375 2261.8701171875 1952.8399658203125 2033.280029296875 2295.669921875 2477.669921875 2402.919921875 2369.139892578125 2486.56005859375 2487 2250.969970703125 2153.3701171875 2101.030029296875 2146.39990234375 1850.18994140625 1671.1800537109375 1817.27001953125 1864.199951171875 2003.760009765625 1939.31005859375 2157.3701171875 2256.3701171875 2358.969970703125 2242.9599609375 2159.699951171875 2230.429931640625 1957.800048828125 1562.3299560546875 1691.1700439453125 1925.6500244140625 1971.0699462890625 1839.9300537109375 1557.199951171875 1614.0999755859375 1531.0999755859375 1183.6500244140625 1275.6800537109375 882.6400146484375 951.32000732421875 843.70001220703125 757.530029296875 877.28997802734375 989.45001220703125 1512.2099609375 1640.0799560546875 1582.06005859375 1459.5400390625 1335.81005859375 1066.969970703125 888.33001708984375 769.25 825.0999755859375 925.280029296875 1134.1600341796875 1107.9300537109375 1187.56005859375 1337.0400390625 1438.56005859375 1517.9300537109375 1603.6500244140625 1602.6800537109375 1551.1300048828125 1597.0999755859375 1586.8900146484375 1598.3800048828125 1526.6600341796875 1523.0899658203125 1555.8299560546875 1540.1800537109375 1489.9200439453125 1468.7900390625 1422.2099609375 1387.469970703125 1273.3299560546875 1158.5400390625 964.780029296875 817.82000732421875 970.16998291015625 885.21002197265625 783.719970703125 854.66998291015625 866.3599853515625 810.969970703125 838.510009765625 870.59002685546875 868.41998291015625 942.79998779296875 823.83001708984375 810.59002685546875 822.45001220703125 821.6099853515625 980.97998046875 895.28997802734375 884.719970703125 911.6500244140625 947.65997314453125 917.58001708984375 933.280029296875 937.29998779296875 920.84002685546875 939.78997802734375 979.02001953125 1043.8199462890625 1197.8299560546875 1331.260009765625 1400.050048828125 1388.31005859375 1154.8599853515625 1094.75 1073.030029296875 1138.5 1300.56005859375 1352.8900146484375 1688.8399658203125 1657.4599609375 1712.3499755859375 1710.7099609375 1583.8599853515625 1640.8499755859375 1779.3499755859375 1675.7099609375 1608.1300048828125 1668.3800048828125 1717.7900390625 1602.06005859375 1777.260009765625 1738.6300048828125 1712.530029296875 1608.8299560546875 1389.06005859375 1287.2900390625 1230.949951171875 1223.5699462890625 1447.780029296875 1753.47998046875 2010.3800048828125 2093.030029296875 2043.3800048828125 2166.110107421875 2214.449951171875 2302.52001953125 1996.81005859375
1799.6500244140625 1830.5400390625 2148.010009765625 1894.27001953125 1786.0899658203125 1616.6500244140625 1496.300048828125 1668.4300537109375 1693.6500244140625 1665.06005859375 1450 1139.510009765625 885.27001953125 660.780029296875 667.59002685546875 808.4000244140625 1254.4300537109375 1610.31005859375 1830.75 1515.3399658203125 1306.27001953125 1501.6800537109375 1758.8900146484375 1964.9200439453125 2148.429931640625 2284.3798828125 2009.52001953125 1830.31005859375 1861.1800537109375 2125.75 2308.760009765625 2386.75 2199.02001953125 2263.820068359375 2087.75 2183.070068359375 2185.929931640625 2325.110107421875 2474.669921875 2263.75 2287.409912109375 2263.199951171875 2173.389892578125 1947.1300048828125 1603.030029296875 1545.719970703125 1602.6500244140625 1697.02001953125 1864.9599609375 2056.6201171875 2150.669921875 2286.85009765625 2404.8701171875 2197.510009765625 2170.840087890625 1785.93994140625 1564.5 1865.4599609375 2090.52001953125 1994.030029296875 1731.2900390625 1711.780029296875 1745.8299560546875 1610.5899658203125 1552.6300048828125 1205.530029296875 1090.77001953125 1187.0899658203125 1232.1800537109375 963.030029296875 748.4000244140625 938.6300048828125 1267.02001953125 1513.0400390625 1454.949951171875 1394.56005859375 1267.81005859375 1096.4300537109375 953.20001220703125 721.34002685546875 794.6500244140625 941.83001708984375 980.84002685546875 1007.32000732421875 1073 1241.7900390625 1436.199951171875 1540.510009765625 1702.010009765625 1682.4300537109375 1634.9100341796875 1735.5699462890625 1738.0899658203125 1705.3499755859375 1706.6600341796875 1648.9300537109375 1693.800048828125 1661.719970703125 1563.43994140625 1627.9300537109375 1617.7099609375 1536.3399658203125 1454.6500244140625 1300.4300537109375 1130.56005859375 946.20001220703125 847.9000244140625 1051.8900146484375 864.1500244140625 791 795.94000244140625 907.29998779296875 875.780029296875 838.27001953125 835.16998291015625 810.59002685546875 810.59002685546875 811.09002685546875 814.8900146484375 911.59002685546875 936.69000244140625 910.58001708984375 920.84002685546875 871.84002685546875 883.469970703125 915.8800048828125 1009.84002685546875 1139.4300537109375 1177.719970703125 1033.52001953125 962.469970703125 983.780029296875 1076.1300048828125 1301.77001953125 1412.7099609375 1346.1700439453125 1080.0999755859375 1029.219970703125 1076.77001953125 1139.0400390625 1244.3599853515625 1331.1800537109375 1492.56005859375 1524.0699462890625 1548.949951171875 1510.0899658203125 1481.800048828125 1487.5799560546875 1477.06005859375 1424.6800537109375 1434.6400146484375 1467.1099853515625 1488.02001953125 1513.7900390625 1505.31005859375 1489.5799560546875 1455.1500244140625 1354.06005859375 1280.5999755859375 1212.6800537109375 1215.0699462890625 1294.0400390625 1545.6600341796875 1837.010009765625 1870.8499755859375 1945.18994140625 2067.820068359375 2075.9599609375 2048.3701171875 2126.530029296875 1926.3199462890625
1918.6800537109375 1990.9300537109375 2103.25 1885.81005859375 1914.6800537109375 1609.9300537109375 1667.75 1822.3299560546875 1725.4300537109375 1402.68994140625 1131.8800048828125 996.34002685546875 743.030029296875 625.260009765625 724.9000244140625 921.1300048828125 1226.02001953125 1512.93994140625 1994.81005859375 1925.8199462890625 1588.9200439453125 1443.6800537109375 1849.1300048828125 2021.199951171875 2205.159912109375 2369.760009765625 2343.2900390625 2216.360107421875 2091.77001953125 2203.2900390625 2338.800048828125 2190.5400390625 2022.31005859375 1877.9100341796875 1837.8199462890625 1957.010009765625 2163.510009765625 2426.860107421875 2276.1201171875 2091.3701171875 2078.139892578125 2059.080078125 1868.050048828125 1635.6300048828125 1500.1400146484375 1572.6800537109375 1697.56005859375 1698.5899658203125 1880.8199462890625 1974.719970703125 2037.949951171875 2239.409912109375 2531.530029296875 2205.7099609375 1936.31005859375 1740.6400146484375 1764.0799560546875 2038.6500244140625 2252.389892578125 1898.1800537109375 1799 1846.8900146484375 1937.5400390625 1818.1300048828125 1571.0400390625 1089.6700439453125 1275.4300537109375 1490.8299560546875 1470.81005859375 1114.56005859375 761.780029296875 804.09002685546875 1127.050048828125 1290.31005859375 1166.06005859375 1161.0799560546875 1160.56005859375 1084.1800537109375 946.21002197265625 754.3900146484375 747.59002685546875 900.71002197265625 962.4000244140625 981.6400146484375 1005.280029296875 1161.969970703125 1263.1800537109375 1412.219970703125 1625.1600341796875 1762.5699462890625 1798.81005859375 1833.0999755859375 1825.510009765625 1820.18994140625 1806.9200439453125 1705.219970703125 1816.47998046875 1676.4200439453125 1637.06005859375 1751.56005859375 1703.1800537109375 1582.9000244140625 1630.93994140625 1493.530029296875 1329.5899658203125 1190.2900390625 991.04998779296875 972.52001953125 1163.3900146484375 978.4000244140625 887.6500244140625 868.1099853515625 904 810.59002685546875 817.260009765625 816.40997314453125 831.47998046875 835.22998046875 857.69000244140625 912.9000244140625 933.46002197265625 927.70001220703125 939.010009765625 941.9000244140625 966.84002685546875 1020.8800048828125 1042.449951171875 1153.1500244140625 1357.1800537109375 1162.9599609375 1084.699951171875 1024.4300537109375 970 1116.97998046875 1261.31005859375 1106.510009765625 1007.1400146484375 1018.030029296875 1096.1600341796875 1328.5699462890625 1434.5899658203125 1493.0799560546875 1474.3599853515625 1457.02001953125 1471.699951171875 1425.1800537109375 1388.1800537109375 1371.81005859375 1321.7900390625 1297.9599609375 1321.6800537109375 1367.6500244140625 1409.969970703125 1427.3900146484375 1425.3499755859375 1368.0799560546875 1292.25 1229.2099609375 1207.25 1215.31005859375 1235.02001953125 1423.25 1623.93994140625 1639.0699462890625 1777.2099609375 1938.3900146484375 1852.7099609375 1992.93994140625 1847.050048828125 1965.6700439453125 1822.800048828125
1922.9300537109375 2262.800048828125 2125.6201171875 2122.89990234375 1810.280029296875 1594.5899658203125 1780.719970703125 1974.800048828125 1572.18994140625 1248.75 994.25 883.6300048828125 661.84002685546875 623.71002197265625 733.760009765625 1061.9000244140625 1310.8299560546875 1561.27001953125 1878.81005859375 2302.06005859375 1894.699951171875 1496.18994140625 1694.969970703125 1952.1700439453125 2200.949951171875 2411.85009765625 2641.110107421875 2426.1201171875 2250.10009765625 2043.4200439453125 1858.8800048828125 1797.3499755859375 1713.7900390625 1916.969970703125 2065.1298828125 2179.449951171875 2300.679931640625 2113.8798828125 2008.780029296875 1899.4300537109375 1794.5799560546875 1723.5 1659.5400390625 1540.1800537109375 1511.31005859375 1838.2099609375 2096.9599609375 1923 2148.9599609375 2105.909912109375 2084.39990234375 2189.360107421875 2381.1201171875 2170.7900390625 2095.260009765625 2015.719970703125 1962.3399658203125 2121.4599609375 2304.6201171875 2129.699951171875 2123.340087890625 2061.969970703125 1979.9300537109375 1606.06005859375 1257.4000244140625 1268.81005859375 1625.52001953125 1420.06005859375 1286.27001953125 1026.5999755859375 905.1500244140625 735.760009765625 774.510009765625 1022.1500244140625 1023.46002197265625 881.96002197265625 986 1071.4300537109375 1015.44000244140625 799.45001220703125 677.4000244140625 791.57000732421875 881.71002197265625 951.8900146484375 958.1400146484375 1110.0999755859375 1067.8599853515625 1367 1659.6800537109375 1805.9599609375 1844.1500244140625 1794.800048828125 1838.9100341796875 1898.1099853515625 1890.0799560546875 1876.699951171875 1869.800048828125 1784.9300537109375 1779.4200439453125 1867.97998046875 1720.0799560546875 1736.2900390625 1742.7099609375 1680.5799560546875 1507.4300537109375 1282.8599853515625 1004.3800048828125 909.46002197265625 1152.22998046875 1059.3599853515625 884.97998046875 862.030029296875 811.96002197265625 872.280029296875 845.280029296875 861.91998291015625 929.91998291015625 891.32000732421875 942.4000244140625 923.02001953125 924.5999755859375 939.260009765625 954.07000732421875 981.280029296875 1010.75 1053.8299560546875 1104.050048828125 1190.4599609375 1427.449951171875 1263.56005859375 1202.1600341796875 1095.1300048828125 972.530029296875 994.52001953125 986.72998046875 1022.1500244140625 1015.40997314453125 1012.21002197265625 1232.469970703125 1447.260009765625 1440.2099609375 1392.6300048828125 1392.3499755859375 1369.93994140625 1411.56005859375 1419.5400390625 1340.9300537109375 1247.6800537109375 1218.72998046875 1217.1800537109375 1234.4200439453125 1255.0699462890625 1278.4200439453125 1304.8599853515625 1302.3800048828125 1257.280029296875 1212.260009765625 1202.68994140625 1209.5400390625 1240.4200439453125 1323.1099853515625 1427.3299560546875 1503.25 1612.52001953125 1775.800048828125 1856.1800537109375 1717.3499755859375 1817.5899658203125 1681.9300537109375 1799.8599853515625 1733.949951171875
2094.219970703125 2328.860107421875 2246.360107421875 2019.780029296875 1742.4300537109375 1761.56005859375 1939.9100341796875 1982.9300537109375 1626.9100341796875 1196.260009765625 969.19000244140625 821.5 634.45001220703125 605.27001953125 769.84002685546875 1121.4100341796875 1462.27001953125 1628.9100341796875 1889.06005859375 2110.3701171875 2288.43994140625 1909.719970703125 1627.9599609375 1878.050048828125 2283.8701171875 2545.070068359375 2560.570068359375 2188.7900390625 1942.5999755859375 1700.8800048828125 1590.530029296875 1533.300048828125 1748.2900390625 2055.06005859375 2150.0400390625 2084.39990234375 2002.8199462890625 1759.4300537109375 1709.6800537109375 1627.8900146484375 1543.1700439453125 1504.02001953125 1476.219970703125 1495.18994140625 1711.9599609375 2007.18994140625 2296.10009765625 2180.39990234375 2283.179931640625 2482.510009765625 2408.81005859375 2389.1201171875 2357.580078125 2591.6201171875 2402.39990234375 2214.25 2015.6600341796875 2141.409912109375 2509.909912109375 2344.550048828125 2335.2099609375 2247.929931640625 1969.9599609375 1498.4300537109375 1342.6300048828125 1625.530029296875 1624.6600341796875 1385.6600341796875 1264.3900146484375 1331.8499755859375 1196.2900390625 976.6300048828125 792.96002197265625 723.53997802734375 787.19000244140625 764.780029296875 816.65997314453125 969.780029296875 970.71002197265625 809.8900146484375 844.6300048828125 669.780029296875 772.34002685546875 859.280029296875 832.70001220703125 912.21002197265625 1069.4300537109375 1342.7900390625 1694.75 1746.27001953125 1687.3399658203125 1754.1400146484375 1810.6800537109375 1837.9300537109375 1860.06005859375 1924.25 1914.56005859375 1906.780029296875 1945.02001953125 1940.3900146484375 1838.6800537109375 1819.6800537109375 1870.510009765625 1697.31005859375 1442.4200439453125 1205.219970703125 1125.2099609375 927.77001953125 873.3499755859375 870.28997802734375 823.1400146484375 858.82000732421875 869.030029296875 869.530029296875 887.82000732421875 916.40997314453125 876.53997802734375 902.1400146484375 927.1099853515625 938.91998291015625 934.6500244140625 966.6400146484375 996.46002197265625 1035.5 1069.5699462890625 1130.56005859375 1235.5999755859375 1382.1700439453125 1424.1800537109375 1382.949951171875 1234.9200439453125 1148.760009765625 1001.52001953125 1018.530029296875 1038.8900146484375 1008.969970703125 995.1099853515625 1041.199951171875 1249.43994140625 1374.3900146484375 1300.469970703125 1218.8499755859375 1245.4000244140625 1234.4000244140625 1307.81005859375 1323.8499755859375 1264.6099853515625 1222.8599853515625 1163.300048828125 1177.0999755859375 1184.0899658203125 1186.8599853515625 1191.0400390625 1189.8499755859375 1192.800048828125 1195.68994140625 1203.02001953125 1252.0400390625 1324.010009765625 1376.010009765625 1502.6800537109375 1575.8900146484375 1617.1600341796875 1634.949951171875 1618.1700439453125 1630.68994140625 1596.3299560546875 1572.780029296875 1573.81005859375 1599.75 1683.4000244140625
2340.68994140625 2503.300048828125 2289.93994140625 2074.199951171875 1971.75 2013.0400390625 1798.06005859375 1874.06005859375 1596.719970703125 1285.4300537109375 937.45001220703125 668.530029296875 589.46002197265625 707.58001708984375 946.84002685546875 1144.68994140625 1085.5899658203125 1338.969970703125 1534.260009765625 1909.6800537109375 2180.919921875 2247.840087890625 1970.06005859375 1856.969970703125 2212.320068359375 2520.820068359375 2296.280029296875 2035.31005859375 1675.030029296875 1720.5 1814.6500244140625 1517.3399658203125 1717.3800048828125 1723.010009765625 1897.760009765625 1737.4000244140625 1709.1700439453125 1581.4200439453125 1521.18994140625 1464.27001953125 1450.81005859375 1464.56005859375 1557.3900146484375 1672.010009765625 1802.2099609375 2017.8299560546875 2193.780029296875 2418.050048828125 2411.070068359375 2512.030029296875 2528.330078125 2509.14990234375 2538.889892578125 2460.719970703125 2400 2367 2224.429931640625 2166.14990234375 2494.2900390625 2168.919921875 1988.1700439453125 1852.5699462890625 1819.81005859375 1447.3499755859375 1663.6500244140625 2026.27001953125 1789 1404.8199462890625 1501.81005859375 1648.02001953125 1457.780029296875 1141.6800537109375 1053.449951171875 835.280029296875 705.69000244140625 663.780029296875 722.3800048828125 848.1500244140625 781.030029296875 779.969970703125 800.95001220703125 649.65997314453125 823.3800048828125 674.780029296875 743.719970703125 917.6500244140625 1146.300048828125 1515.8900146484375 1664 1613.0699462890625 1465.9000244140625 1696.68994140625 1761.1400146484375 1783.469970703125 1839.550048828125 1842.1500244140625 1864.9300537109375 1903.510009765625 1982.1800537109375 1983.9599609375 1925.969970703125 1903.1400146484375 1943.8399658203125 1710.5899658203125 1429.0699462890625 1337.9300537109375 1315.0999755859375 1006.97998046875 899.70001220703125 833.84002685546875 993.0999755859375 964.030029296875 976.010009765625 907.3900146484375 918.44000244140625 924.4000244140625 905.66998291015625 934.030029296875 975.95001220703125 998.33001708984375 1041.9300537109375 1033.5400390625 1106.18994140625 1112.219970703125 1149.8599853515625 1304.699951171875 1331.719970703125 1588.81005859375 1614.3199462890625 1508.5899658203125 1379.0400390625 1184.1099853515625 1040.1800537109375 1042.9300537109375 1038.2099609375 1032.030029296875 1056.81005859375 1051.1500244140625 1175.3399658203125 1209.3800048828125 1122.7900390625 1069.050048828125 1088.1500244140625 1134.81005859375 1134.260009765625 1163.0899658203125 1187.6800537109375 1164.7900390625 1220.0799560546875 1356.25 1387.2099609375 1372.280029296875 1322.469970703125 1327.6099853515625 1335.56005859375 1373.3299560546875 1417.06005859375 1463.219970703125 1521.3599853515625 1636.06005859375 1767.6400146484375 1809.9200439453125 1836.4200439453125 1839.06005859375 1805.5699462890625 1747.9200439453125 1605.93994140625 1506.6700439453125 1450.260009765625 1489.3299560546875 1559.9300537109375
2502.02001953125 2685.93994140625 2391.39990234375 2206.860107421875 2202.39990234375 2094.360107421875 1666.68994140625 1426.219970703125 1382.81005859375 1161.31005859375 839.08001708984375 625.84002685546875 585.8800048828125 826.59002685546875 1016.3900146484375 1255.81005859375 1446.27001953125 1333.56005859375 1294.6500244140625 1665.6500244140625 1892.010009765625 2258.1298828125 2249.75 2110.719970703125 2231.110107421875 2416.1201171875 2108.5400390625 1798 1737.81005859375 1971 1997.3299560546875 1703.5899658203125 1415.0999755859375 1446.43994140625 1608.43994140625 1477.8900146484375 1484.699951171875 1406.56005859375 1418.6300048828125 1531.4100341796875 1658.4100341796875 1726.4300537109375 1783.050048828125 1802.06005859375 2020.31005859375 2117.3798828125 2223.409912109375 2265.1201171875 2232.64990234375 2283.8701171875 2313.090087890625 2469.590087890625 2449.5 2266.169921875 2256.8798828125 2361.89990234375 2485.330078125 2453.1201171875 2326.449951171875 1964.530029296875 1736.3399658203125 1610.280029296875 1587.449951171875 1630.530029296875 1808.0999755859375 1813.0699462890625 1739.5699462890625 1491.9000244140625 1761.280029296875 1870.6800537109375 1624.2099609375 1485.9300537109375 1305.4000244140625 1128.6800537109375 853.1300048828125 713.03997802734375 718.96002197265625 726.70001220703125 737.21002197265625 777.5 839.21002197265625 737.71002197265625 681.44000244140625 813.530029296875 643.780029296875 944.260009765625 1267.0799560546875 1472.510009765625 1377.2900390625 1216.43994140625 1363.1400146484375 1588.8499755859375 1633.800048828125 1735.1500244140625 1781.9300537109375 1761.5999755859375 1700.56005859375 1853.6300048828125 1895.6700439453125 1966.31005859375 2048.469970703125 2077.25 2002.1400146484375 1732.6099853515625 1641.18994140625 1613.1700439453125 1362.1600341796875 1136.8800048828125 977.25 885.57000732421875 1070.5799560546875 1108.5 1234.3199462890625 1025.6400146484375 986.3499755859375 993.1500244140625 1043.0699462890625 1095.77001953125 1172.0899658203125 1076.469970703125 1216.6300048828125 1207.1400146484375 1293.4300537109375 1334.030029296875 1405.6800537109375 1401.8800048828125 1569.5699462890625 1771.530029296875 1769.530029296875 1585.6300048828125 1447.5400390625 1212.1400146484375 1096.25 1046.449951171875 1055.18994140625 1054.77001953125 1085.050048828125 1075.2900390625 1070.1800537109375 1051.719970703125 1077.699951171875 1136.9000244140625 1162.6400146484375 1090.0899658203125 1071.75 1080.6700439453125 1090.3199462890625 1145.31005859375 1307.0899658203125 1529.260009765625 1572.0400390625 1582.3399658203125 1565.949951171875 1544.68994140625 1592.050048828125 1615.81005859375 1655.0899658203125 1698.8199462890625 1706.6500244140625 1740.5400390625 1780.030029296875 1787.4000244140625 1803.1800537109375 1833.7900390625 1756.8299560546875 1639.1500244140625 1501.3800048828125 1411 1696.8599853515625 1724.199951171875 1771.1500244140625
2705.1201171875 2690.860107421875 2479.760009765625 2340.0400390625 2060.5 1796.7900390625 1649.0999755859375 1166.1500244140625 1070.760009765625 928.15997314453125 709.8800048828125 580.8900146484375 663.8499755859375 852.96002197265625 1085.4100341796875 1343.56005859375 1590.56005859375 1706.1600341796875 1481.3499755859375 1401.93994140625 1764.260009765625 2031.8499755859375 2246.1201171875 2315.909912109375 2464.3701171875 2198.429931640625 1977.68994140625 1812.6800537109375 1984.949951171875 2134.8701171875 2078 1815.550048828125 1534.3199462890625 1354.449951171875 1326.8900146484375 1336.06005859375 1411.1500244140625 1447.7900390625 1598.4300537109375 1733.699951171875 1904.18994140625 1839.5 1860.9300537109375 2010.6800537109375 2051.840087890625 2196.469970703125 2168.840087890625 2060.81005859375 1998.56005859375 2057.02001953125 2214.159912109375 2324.6201171875 2526.10009765625 2396.93994140625 2219.110107421875 2253.719970703125 2346.1298828125 2193.340087890625 2055.60009765625 1949.449951171875 1860.75 1951.1800537109375 1969.8800048828125 1975.06005859375 1983.719970703125 1910.1400146484375 1738.06005859375 1664.06005859375 1832.3199462890625 1801.469970703125 1938.25 1738.81005859375 1498.6400146484375 1160.0999755859375 719.510009765625 723.530029296875 727.69000244140625 693.530029296875 769.84002685546875 817.84002685546875 871.45001220703125 893.780029296875 903.1500244140625 891.59002685546875 658.57000732421875 864.1500244140625 1192.3599853515625 1283.0699462890625 1123.219970703125 1026.4599609375 1172.800048828125 1481.31005859375 1576.72998046875 1619.3900146484375 1666.0799560546875 1492.3399658203125 1555.4599609375 1821.06005859375 1904.93994140625 2052.820068359375 2092.969970703125 2138.97998046875 2099.780029296875 2011.3800048828125 1968.219970703125 1822.97998046875 1551.1800537109375 1351.219970703125 1090.75 1038.5400390625 975.94000244140625 1178.75 1354.1099853515625 1201.280029296875 1178.18994140625 1172.6300048828125 1389.6400146484375 1379.6800537109375 1319.56005859375 1239.5699462890625 1467.5799560546875 1381.699951171875 1497.6800537109375 1519.760009765625 1513.719970703125 1623.5400390625 1713.47998046875 1845.6300048828125 1820.260009765625 1646.9300537109375 1450.3599853515625 1319.300048828125 1172.6600341796875 1079.72998046875 1076.5899658203125 1076.8800048828125 1094.3199462890625 1106.0400390625 1107.6500244140625 1133.4300537109375 1175.0799560546875 1250.06005859375 1346.219970703125 1265.72998046875 1198.1600341796875 1138.9300537109375 1089.8299560546875 1089.02001953125 1176.9599609375 1382.030029296875 1522.3499755859375 1528.3299560546875 1549.0999755859375 1562.68994140625 1642.22998046875 1627.1500244140625 1549.4300537109375 1650.4300537109375 1642.699951171875 1543.0400390625 1613.31005859375 1646.800048828125 1691.2900390625 1697.280029296875 1649.02001953125 1421.1500244140625 1375.18994140625 1438.199951171875 1718.8499755859375 1937.56005859375 1916.2099609375
2719.3701171875 2455.10009765625 2219.6201171875 2069.909912109375 1993.81005859375 1566.06005859375 1243.9300537109375 970.09002685546875 901.34002685546875 738.9000244140625 581.21002197265625 581.780029296875 697.780029296875 938.530029296875 1162.1800537109375 1373.449951171875 1763.77001953125 2073.090087890625 1915.8399658203125 1602.1600341796875 1512.75 1913.56005859375 2186.06005859375 2320.02001953125 2572.820068359375 2327.320068359375 2028.3299560546875 1921.06005859375 2097.760009765625 2196.469970703125 2052.409912109375 1861.0999755859375 1667.6700439453125 1340.0699462890625 1306.9200439453125 1493.56005859375 1646.75 1662.1600341796875 1753.9300537109375 1901.52001953125 2054.010009765625 1990.4300537109375 1888.75 2094.330078125 2130.159912109375 2161.320068359375 1933.8299560546875 1850.8399658203125 2020.010009765625 2126.3701171875 2207.360107421875 2368.85009765625 2601.909912109375 2596.81005859375 2315.580078125 2086.030029296875 2119.669921875 1971.1300048828125 1934.1700439453125 2016.9100341796875 2089.889892578125 2408.2099609375 2219.52001953125 2324.090087890625 2315.830078125 2116.679931640625 1962.1800537109375 1751.9300537109375 1806.969970703125 1574.969970703125 1622.2900390625 1600.8800048828125 1357.43994140625 969.34002685546875 716.6400146484375 707.96002197265625 627.760009765625 678.21002197265625 794.530029296875 859.030029296875 886.760009765625 883.280029296875 901.010009765625 834.34002685546875 650.030029296875 872.46002197265625 990.21002197265625 1006.82000732421875 895.22998046875 891.3499755859375 1145.6099853515625 1163.3299560546875 1229.4100341796875 1457.3499755859375 1402.030029296875 1205.6600341796875 1394.260009765625 1732.8900146484375 1760.8599853515625 1908.0999755859375 2043.72998046875 2068.409912109375 2022.5400390625 2109.570068359375 2076.360107421875 1742.8599853515625 1557.4200439453125 1310.18994140625 1364.949951171875 1245.780029296875 1004.280029296875 1042.1800537109375 1245.1300048828125 1408.47998046875 1412.9200439453125 1443.75 1470.5799560546875 1556.43994140625 1399.97998046875 1518.1700439453125 1749.8599853515625 1584.7099609375 1698.1300048828125 1729.2900390625 1736.9300537109375 1826.5799560546875 1881.0400390625 1848.0799560546875 1716.4200439453125 1594.5 1433.6700439453125 1305.6300048828125 1177.1800537109375 1148.3800048828125 1131.6800537109375 1130.510009765625 1149.6500244140625 1153.469970703125 1219.3599853515625 1283.449951171875 1276.6800537109375 1457.8900146484375 1478.0899658203125 1403.780029296875 1296.9300537109375 1221.43994140625 1204.800048828125 1102.75 1101.510009765625 1154.25 1296.8199462890625 1338.6800537109375 1337.47998046875 1331.06005859375 1432.5 1432.010009765625 1314.530029296875 1389.050048828125 1439.06005859375 1361.6800537109375 1372.72998046875 1377.97998046875 1432.93994140625 1533.9300537109375 1514.6400146484375 1354.6099853515625 1301.31005859375 1410.4000244140625 1639.56005859375 1736.8199462890625 1685.510009765625
2436.1201171875 2375.840087890625 2119.31005859375 1828.6800537109375 1599.31005859375 1229.4599609375 1021.6500244140625 1044.550048828125 1088.760009765625 690.21002197265625 552.510009765625 602.9000244140625 875.3900146484375 791.010009765625 1112.760009765625 1407.9300537109375 1530.27001953125 1808.4599609375 2127.1201171875 1922.949951171875 1607.800048828125 1812.5 2197.530029296875 2486 2507.68994140625 2175.159912109375 1964.0799560546875 2071.9599609375 2149.39990234375 2279.0400390625 2084.840087890625 1947.3199462890625 1618.3399658203125 1310.219970703125 1328.6800537109375 1574.030029296875 1755.25 1861.260009765625 1761.1800537109375 2017.219970703125 2173.469970703125 2152.830078125 1928.5699462890625 2082.35009765625 2218.2900390625 1961.93994140625 1753.0899658203125 1951.18994140625 2227.719970703125 2438.7900390625 2547.6201171875 2528.8701171875 2620.9599609375 2482.199951171875 2293.6201171875 2193.469970703125 2127.070068359375 2030.93994140625 2136.840087890625 2291.25 2332.919921875 2451.3701171875 2502.18994140625 2298.6201171875 2351.030029296875 2148.6201171875 1988.6800537109375 1783.1800537109375 1662.050048828125 1536.43994140625 1364.4300537109375 1337.31005859375 1312.18994140625 1068.530029296875 711.0999755859375 689.21002197265625 623.030029296875 755.3800048828125 845.760009765625 879.71002197265625 860.21002197265625 888.1300048828125 894.08001708984375 745.90997314453125 792.71002197265625 821.84002685546875 708.84002685546875 726.46002197265625 771.1500244140625 816.280029296875 890.469970703125 996.29998779296875 1005.28997802734375 1247.4300537109375 1141.280029296875 1226.469970703125 1495.3599853515625 1426.6600341796875 1600.31005859375 1804.0899658203125 1911.43994140625 1942.510009765625 2067.949951171875 2158.889892578125 2028.8499755859375 1727.030029296875 1619.9000244140625 1570.8499755859375 1459.7099609375 1288.8599853515625 1038.3900146484375 1162.9599609375 1483.72998046875 1637.25 1668.31005859375 1704.5 1706.050048828125 1697.56005859375 1553.0799560546875 1711.4599609375 1941.7900390625 1859.0400390625 1871.9000244140625 1913.5400390625 1889.280029296875 2016.3599853515625 2000.27001953125 1866.0999755859375 1712.199951171875 1539.3399658203125 1414.06005859375 1274.6400146484375 1185.52001953125 1289.6600341796875 1234.22998046875 1249.4200439453125 1250.27001953125 1187.6400146484375 1372.010009765625 1501.8299560546875 1463.31005859375 1630.550048828125 1607.199951171875 1477.530029296875 1312.949951171875 1361.93994140625 1336.6700439453125 1211.7099609375 1142.06005859375 1134.3199462890625 1115.8199462890625 1137.5699462890625 1138.4000244140625 1168.18994140625 1156.18994140625 1175.030029296875 1199.6700439453125 1226.8599853515625 1246.72998046875 1245.0799560546875 1245.9000244140625 1265.199951171875 1277.81005859375 1298.050048828125 1321.0400390625 1274.8499755859375 1326.2900390625 1504.510009765625 1668.77001953125 1638.27001953125 1413.3599853515625
2001.8399658203125 1967.81005859375 2005.5999755859375 1578.81005859375 1283.3399658203125 1282.8499755859375 1267.6300048828125 1294.6400146484375 903.6500244140625 578.510009765625 529.719970703125 743.9000244140625 1012.6400146484375 1186.969970703125 1217.6300048828125 1174.6400146484375 1545.6500244140625 1904.719970703125 2166.340087890625 2214.89990234375 1991.18994140625 1973.8900146484375 2178.93994140625 2460 2416.199951171875 2119.949951171875 2153.1201171875 2179.179931640625 2228.3701171875 2185.8798828125 1866.449951171875 1587.77001953125 1481.3199462890625 1297.719970703125 1456.3399658203125 1643.8800048828125 1847.199951171875 2032.1300048828125 1802.1300048828125 1952.06005859375 2137.080078125 2346.39990234375 2102.8701171875 2150.010009765625 2104.360107421875 1830.1800537109375 1757.52001953125 1968.8299560546875 2212.219970703125 2282.75 2327.360107421875 2346.75 2473.659912109375 2433.6201171875 2349.8701171875 2261.1201171875 2334.64990234375 2304.580078125 2408.139892578125 2381.1201171875 2446.830078125 2304.60009765625 2221.27001953125 2195.06005859375 2125.89990234375 2135.280029296875 2079.050048828125 1995.1600341796875 1916.6500244140625 1704.5999755859375 1525.4300537109375 1166.4599609375 1218.1800537109375 937.5999755859375 687.95001220703125 618.1500244140625 671.760009765625 789.08001708984375 823.21002197265625 835.9000244140625 872.219970703125 882.96002197265625 846.969970703125 655.45001220703125 623.760009765625 818.19000244140625 968.96002197265625 881.530029296875 1096.43994140625 876.0999755859375 822.25 847.96002197265625 893.1500244140625 1000.69000244140625 1016.469970703125 1219.6400146484375 1258.25 1363.1500244140625 1604.300048828125 1612.56005859375 1808.3800048828125 2005.8399658203125 2095.889892578125 2073.840087890625 2053.409912109375 1945.7099609375 1741.3599853515625 1550.6800537109375 1333.8199462890625 1150.06005859375 1004.6400146484375 1089.1600341796875 1418.8399658203125 1596.699951171875 1732.050048828125 1865.0999755859375 1883.3900146484375 1829.93994140625 1814.5799560546875 1955.6400146484375 2005.1099853515625 1949.6400146484375 2025.719970703125 2078.639892578125 2090.3701171875 2155.590087890625 2054.39990234375 1919.7900390625 1752.5999755859375 1584.4000244140625 1387.77001953125 1246.56005859375 1362.43994140625 1502.9200439453125 1427.77001953125 1508.280029296875 1431.6800537109375 1285.5699462890625 1387.06005859375 1568.300048828125 1714.8900146484375 1789.4100341796875 1658.81005859375 1532.22998046875 1511.8800048828125 1548.25 1474.6600341796875 1328.25 1268.1400146484375 1174.5699462890625 1138.9300537109375 1153.77001953125 1142.77001953125 1140.9200439453125 1136.1300048828125 1142.719970703125 1147.4200439453125 1154.02001953125 1166.780029296875 1188.4000244140625 1203.3800048828125 1215.47998046875 1216.6800537109375 1231.0699462890625 1247.5999755859375 1300.780029296875 1453.22998046875 1528.030029296875 1514.550048828125 1410.199951171875 1363.8800048828125
1758.27001953125 1596.1300048828125 1506.949951171875 1426.9300537109375 1518.4300537109375 1502.6300048828125 1481.1400146484375 1138.6800537109375 787.6500244140625 519.15997314453125 611.030029296875 829.75 1060.7900390625 1335.6400146484375 1473.3900146484375 1493.1600341796875 1465.5999755859375 1805.93994140625 2170.280029296875 2314.6201171875 2392.409912109375 2247.68994140625 2248.659912109375 2526.1298828125 2480.340087890625 2542.830078125 2458.7900390625 2383.8701171875 2237.64990234375 1979.6800537109375 1908.3499755859375 1624.5 1381.68994140625 1297.530029296875 1539.75 1722.469970703125 1919.06005859375 2064.31005859375 2034.43994140625 2003.8399658203125 2089.64990234375 2273.5 2269.9599609375 2175.669921875 2009.9599609375 1736.300048828125 1775.6500244140625 1964.7900390625 2079.840087890625 2143.89990234375 2165 2273.75 2381.219970703125 2412.31005859375 2510.1298828125 2376.35009765625 2516.510009765625 2362.719970703125 2250.919921875 2161.929931640625 2240.18994140625 2265.949951171875 2128.179931640625 2005.530029296875 1986.2900390625 1947.1800537109375 1858.06005859375 1774.18994140625 1723.4599609375 1612.81005859375 1491.27001953125 1229.550048828125 947.19000244140625 830.4000244140625 684.719970703125 678.84002685546875 622.280029296875 695.760009765625 790.44000244140625 827.40997314453125 891.260009765625 878.9000244140625 815.71002197265625 654.95001220703125 902.8800048828125 1086.02001953125 1182.3900146484375 1210.3599853515625 1314.1300048828125 1032.8800048828125 1086.4599609375 967.53997802734375 1012.3900146484375 970.59002685546875 1003.82000732421875 1075.6400146484375 1143.6300048828125 1312.5699462890625 1461.4599609375 1710.4599609375 1848.280029296875 1919.800048828125 1999.3299560546875 1913.8199462890625 2018.8900146484375 1944.8599853515625 1697.780029296875 1464.1800537109375 1331.02001953125 1310.5799560546875 1048.3800048828125 1110.949951171875 1339.6700439453125 1553.1800537109375 1800.18994140625 1946.1800537109375 1862.25 1903.5899658203125 1949.75 1868.3299560546875 1811.4000244140625 1754.6099853515625 1872.260009765625 2136.06005859375 2263 2146.659912109375 2027.68994140625 1861.969970703125 1716.9200439453125 1613.0799560546875 1455.97998046875 1257.5799560546875 1464.510009765625 1648.47998046875 1658.31005859375 1646.81005859375 1549.030029296875 1390.02001953125 1473.31005859375 1600.4300537109375 1831.219970703125 1928.4599609375 1785.300048828125 1682.0699462890625 1764.280029296875 1738.2099609375 1600.0999755859375 1599.760009765625 1434.52001953125 1315.050048828125 1268.3199462890625 1143.949951171875 1214.5400390625 1226.5899658203125 1252.6500244140625 1206.27001953125 1195.0699462890625 1187.3800048828125 1183.6400146484375 1183.81005859375 1182.199951171875 1201.199951171875 1205.1600341796875 1217.8299560546875 1227.010009765625 1231.510009765625 1301.050048828125 1374.31005859375 1330.3599853515625 1293.969970703125 1211.31005859375
